-0.0057188525 0.0661265678 0.3015927093
-0.0094733339 0.0607533540 0.2654579092
-0.0098698444 0.0591077532 0.2616834382
-0.0085352482 0.0770278908 0.2843853511
0.0051951845 0.0671954821 0.2794938064
-0.0070907674 0.0512079813 0.2824370762
-0.0097500343 0.0535654984 0.2409303836
-0.0094612920 0.0538291414 0.2367700087
-0.0052060092 0.0533678811 0.3136022052
0.0030255683 0.0680236647 0.2964285701
-0.0072378455 0.0788710380 0.2618324299
0.0041705633 0.0848083203 0.2739353865
-0.0013918462 0.0658832317 0.3350718571
-0.0026541117 0.0858120508 0.3426881351
-0.0028874586 0.0837671546 0.3413804415
-0.0073213953 0.0956395074 0.2855831879
0.0066400540 0.0557765167 0.2535601882
-0.0065792737 0.0798873097 0.2584770200
-0.0018712760 0.1688868929 0.3808480458
-0.0007468180 0.1422931320 0.3672818693
-0.0004759379 0.1266938881 0.3593285218
-0.0029140835 0.1041596747 0.3502903154
0.0010973496 0.1089693889 0.2781089980
-0.0032840524 0.0730896709 0.2377920443
-0.0019124918 0.0738691178 0.2362133820
-0.0026791145 0.1259434847 0.2907325824
-0.0011428721 0.1775666341 0.3833562244
-0.0051034809 0.1630256334 0.3478502905
-0.0015035073 0.1548830840 0.3187354236
-0.0003835193 0.0988078807 0.2635109193
-0.0005225917 0.1249888514 0.2899635341
-0.0037005488 0.1413169015 0.3090716008
-0.0017547483 0.1412036200 0.3045962152
-0.0059077920 0.1414739534 0.3291699826
-0.0026924019 0.1786598397 0.3479265696
0.0002177441 0.1261540586 0.3548796794
-0.0051518049 0.1245421327 0.3316943381
0.0004732002 0.1614624561 0.3322227246
-0.0041472040 0.1452251341 0.3487174804
-0.0034924130 0.1581144635 0.3647198373
0.0013128117 0.1479965292 0.3450902036
-0.0045961148 0.0558639988 0.3152134750
-0.0021723445 0.0986795646 0.3211143426
-0.0051979995 0.0780056818 0.3203758589
-0.0050483460 0.0763246839 0.3220501294
-0.0064549581 0.0883297542 0.3053522239
0.0015618273 0.1002414729 0.3225314105
0.0037432588 0.1074199863 0.2987521907
0.0041103624 0.1065435217 0.3025037139
-0.0067263675 0.1191653633 0.3096466477
-0.0045858527 0.1093527568 0.3353796769
0.0030920171 0.1236626134 0.3121084930
0.0047365352 0.0892647795 0.2928199477
-0.0039193154 0.1758575652 0.3638104719
0.0759783324 0.0306167873 0.3466363054
0.0616184578 0.0294219658 0.3393029294
0.0494941501 0.0290494654 0.3347461149
0.0296584093 0.0283584901 0.3258534158
0.1089680397 0.0332754978 0.3618839981
0.1105509474 0.0326268640 0.3624146608
0.0926886522 0.0313609289 0.3560886678
0.0312883562 0.0284461997 0.3271063619
0.1293433241 0.0343779407 0.3744434746
0.1160237311 0.0323944174 0.3446404431
0.0912969116 0.0305147300 0.3213607049
0.0668702296 0.0289568907 0.2896630024
0.1338167276 0.0359063435 0.3538026271
0.0431468450 0.0281006373 0.3156769098
0.0577798244 0.0285763530 0.3202803843
0.1146300185 0.0325514205 0.3286595957
0.0749163169 0.0324027249 0.3283752517
0.0328934700 0.0269206506 0.2887005871
0.0373249774 0.0283749694 0.2614150650
0.0845658048 0.0331560852 0.3063679349
0.1302202632 0.0347351853 0.3718415073
0.0744006986 0.0293789909 0.3264272707
0.0945533565 0.0335192304 0.3379702296
0.1377486377 0.0360732959 0.3531196362
0.0518100814 0.0277763322 0.2802377743
0.0291260510 0.0274660096 0.3056515648
0.0471977503 0.0317828106 0.2995555776
0.0458703407 0.0318028231 0.2974224186
0.1145589620 0.0344606593 0.3292757285
0.0675632958 0.0329851308 0.3050782509
0.0539645899 0.0314029166 0.2785200680
0.0371097635 0.0308105388 0.2667074384
-0.1183358061 0.0338120142 0.3636566770
-0.1202499479 0.0330844244 0.3652654056
-0.0967585440 0.0312139164 0.3533425358
-0.0797391340 0.0302070262 0.3500160446
-0.0575368805 0.0293706633 0.3395843510
-0.0264867540 0.0277795950 0.3170629849
-0.0320798268 0.0296686430 0.3175395907
-0.1416042028 0.0348246151 0.3750688027
-0.1406195813 0.0336269395 0.3548436727
-0.1133319634 0.0341756480 0.3483950988
-0.1397493491 0.0336062790 0.3519371640
-0.1034151440 0.0312341341 0.3161239743
-0.1277812549 0.0333124661 0.3368931404
-0.0489036111 0.0282499072 0.3190246901
-0.0682535459 0.0318638328 0.3244612677
-0.0876734126 0.0330561261 0.3303286699
-0.0334545591 0.0270069553 0.2934582818
-0.0164910535 0.0252008359 0.2908906410
-0.0653247105 0.0324353537 0.3092309209
-0.1237296190 0.0347073440 0.3335317346
-0.0859734692 0.0332462247 0.3064288767
-0.0373030120 0.0306428299 0.2636968646
-0.0321375589 0.0307939787 0.2882264681
-0.0621633056 0.0320998368 0.2869611015
-0.0347277586 0.0310171742 0.2664987289
-0.1425531757 0.0345724588 0.3777381084
-0.0841437946 0.0296711917 0.3054165473
-0.0903476631 0.0330075559 0.3347152200
-0.0503490852 0.0273675997 0.2767740137
-0.0494951068 0.0276270591 0.2990507965
-0.0491282722 0.0282857600 0.3199917566
-0.0681701005 0.0288711925 0.3249270829
-0.1082487239 0.0345589290 0.3304061597
-0.0517541938 0.0295155597 0.2715636636
-0.0472793947 0.0313000818 0.3017289023
-0.0643283583 0.0320895674 0.2875882690
-0.0079445644 -0.0253205033 -0.2260615110
0.0066155628 -0.0196238804 -0.2383033562
0.0062853362 -0.0184874003 -0.2346117127
0.0021878970 -0.0446566896 -0.2274235915
0.0035182519 -0.0441825551 -0.2309545457
0.0346825306 0.0117028787 0.0133273102
0.0336386962 0.0115465524 0.1693981358
0.0345746109 0.0112034090 0.1229250124
-0.0292164417 0.0404414779 -0.0870306007
0.0301981379 0.0395293158 0.0459314550
-0.0346160010 0.0144174392 0.0510276496
-0.0340659917 0.0114545833 0.1232948439
-0.0342928664 0.0125087825 -0.0102937002
0.0338534604 0.0078551641 -0.0739355868
0.0350000603 0.0245238004 -0.0767306239
0.0340986898 0.0287014318 -0.0795522651
0.0347734341 0.0255755691 -0.0065514614
0.0334663802 0.0316330214 -0.0229804859
0.0350791087 0.0241589406 0.0601048586
0.0344131418 0.0272453191 -0.0417347823
0.0329541115 0.0335212454 -0.0586085933
0.0351790003 0.0220487237 0.0574424043
0.0351790003 0.0216557195 -0.0052653546
0.0351790003 0.0170192145 -0.0272037581
0.0351790003 0.0161181456 -0.0924422125
0.0351790003 0.0207232879 0.0330438565
0.0331860223 0.0047540099 -0.0132541165
0.0351790003 0.0168309877 -0.0995615198
0.0297958281 0.0404070486 -0.0658868894
0.0330610400 0.0332882462 0.0812574874
0.0351790003 0.0149231175 -0.0523754476
0.0343145977 0.0274012091 0.1591939389
0.0325757591 0.0343459259 0.1252661281
0.0341671917 0.0100938999 -0.1140539482
0.0233438433 0.0491041425 -0.0547333753
0.0182278497 0.0531379061 -0.0773662438
0.0182717487 0.0531032935 -0.0796668767
0.0187433170 0.0520699423 -0.1146417541
0.0230905310 0.0476094757 -0.1334877672
0.0247058885 0.0474718641 -0.0236095819
0.0266529940 0.0449672425 -0.0410944687
0.0256596617 0.0462445465 0.0267827514
0.0255879554 0.0463370117 -0.0023444523
0.0250364024 0.0470466985 -0.0245476165
0.0240638570 0.0482975946 -0.0002385592
0.0351790003 0.0177978499 0.0324517346
0.0338272266 0.0077318780 0.0809370966
0.0335942943 0.0066500983 0.0474382622
0.0134204631 0.0557925865 -0.0968812082
0.0232736125 0.0491595167 0.0918978903
0.0249579085 0.0451996160 -0.1345268950
0.0238184233 0.0486128977 0.0636975553
0.0321927947 0.0309445635 0.1831572313
0.0156544182 0.0541420025 -0.1156795816
0.0223328266 0.0499012902 0.1334818176
0.0270711348 0.0411433211 -0.1565545634
0.0247768901 0.0473797321 0.0922070799
0.0319879425 0.0356266543 0.1358253010
0.0351790003 0.0161048260 0.0754145518
0.0326609074 0.0056469900 -0.1515138855
0.0319391815 0.0357322672 -0.0969669483
0.0066346952 0.0581281116 -0.0654868670
0.0074161908 0.0580185012 -0.0637221226
0.0119424223 0.0564328033 -0.0120042973
0.0127248911 0.0560938751 0.0131951856
0.0121118831 0.0563594010 -0.0375172237
0.0153911337 0.0549389859 0.0154087315
0.0135041837 0.0532055844 -0.1514247354
0.0268315074 0.0386967855 -0.1746471663
0.0210080361 0.0430984323 -0.1936538933
0.0180869153 0.0453807295 -0.1938110992
0.0282881763 0.0428636828 0.0438946416
0.0283674015 0.0427617806 0.0629977273
0.0113000201 0.0567110613 0.0328734506
0.0123554896 0.0562538822 0.0731661795
0.0109006961 0.0568840295 0.1137620604
0.0094689735 0.0575041835 0.0533987107
0.0141903354 0.0511888317 -0.1686928141
0.0208165686 0.0505186024 0.1828209132
0.0252894603 0.0467204149 0.1114984148
0.0351790003 0.0143286015 0.0118072239
-0.0030973619 0.0585438579 -0.0865330412
-0.0007992253 0.0588655376 -0.0822751522
0.0072811449 0.0580374424 0.0359660915
0.0057202016 0.0582563760 0.0723960757
0.0065069052 0.0581460351 0.0931269793
0.0136805517 0.0555525823 0.1686292230
0.0147778562 0.0537991031 0.2045481015
0.0227161268 0.0488531387 0.1830418399
0.0065009210 0.0545018207 0.2526503801
0.0324518129 0.0285729805 0.1875430191
0.0254709328 0.0464879368 0.1494728119
0.0308394953 0.0073130670 0.1892511143
-0.0062575173 0.0577763082 -0.1088960972
-0.0003977609 0.0570289518 -0.1393842280
0.0002885402 0.0574323201 -0.1334073871
0.0065506540 0.0581398990 0.1502925084
0.0060470444 0.0582105339 0.1334139302
0.0064086296 0.0581598190 0.1299157561
0.0006103508 0.0589730694 -0.0019620821
0.0060811645 0.0582057483 0.0954800949
0.0055056345 0.0563375070 0.2228055438
0.0050906572 0.0566269752 0.2184405532
0.0256176263 0.0462986636 0.1141230181
0.0320855446 0.0354142602 0.0164724004
-0.0069619025 0.0580029221 -0.0476746993
-0.0036144683 0.0584714763 -0.0478521063
-0.0023719319 0.0586453993 -0.0218754287
0.0033828910 0.0520104443 -0.1893924817
0.0024640975 0.0584496315 0.1901352106
0.0023557168 0.0582828597 0.1936627257
0.0046799484 0.0511562179 0.2988591386
0.0248517286 0.0290565806 -0.2173006873
0.0286119791 0.0420204139 0.1666989863
0.0274449803 0.0217122323 0.2295905675
0.0250771007 0.0328345587 0.2406134276
0.0250372003 0.0307861233 0.2440161176
0.0342728124 0.0110631524 -0.1211594845
-0.0136716482 0.0554399204 -0.0631707089
-0.0141472346 0.0546493245 -0.1137031657
-0.0076144635 0.0579115804 0.0604000768
-0.0056346970 0.0581886965 0.1109496456
0.0000632142 0.0559617973 -0.1588646734
-0.0014017456 0.0587043726 0.1684753768
0.0142988225 0.0474807784 0.2709766638
0.0249243039 0.0269972095 -0.2208419245
0.0138109761 0.0422004202 -0.2154450791
0.0298905556 0.0303639662 0.2061947768
-0.0179068901 0.0529468574 -0.0852246068
-0.0089473307 0.0574862694 0.0447682588
-0.0137093402 0.0554235940 0.0023849433
-0.0118475050 0.0562300522 0.0181953664
-0.0085071672 0.0576769272 0.0859280294
-0.0141199416 0.0527809488 -0.1497959609
-0.0024948377 0.0585489415 0.1690406959
0.0148154494 0.0464984722 0.2724400878
0.0298535997 0.0264394880 -0.1976026702
0.0167485773 0.0377487013 0.2901872948
-0.0114960405 0.0563822899 0.1344522649
-0.0089295667 0.0574939639 0.1486226141
-0.0081292125 0.0525900046 -0.1767063198
-0.0009988582 0.0475899656 -0.2093143033
0.0041446564 0.0450371534 0.3506159832
0.0045703364 0.0470999056 0.3341025692
0.0185712789 0.0477027115 0.2335854129
0.0204264384 0.0265707473 0.2768488992
0.0157527361 0.0409240474 0.2889333497
0.0130184895 0.0388893260 0.3117796496
-0.0220514516 0.0496785613 -0.0401161666
-0.0197795565 0.0514701201 -0.0185560204
-0.0206064128 0.0491571757 -0.1327441466
-0.0183303445 0.0500031718 -0.1499162648
-0.0083239676 0.0506624330 0.2818827308
0.0118284350 0.0379855907 -0.2304982808
0.0226957840 0.0465789786 0.2036301801
0.0247410501 0.0133514041 -0.2380462376
0.0199878634 0.0418122005 0.2573030525
0.0215460748 0.0052585858 0.2354918990
-0.0215667105 0.0500608158 0.0578680549
-0.0208370923 0.0506361742 0.0347254213
-0.0223028422 0.0494803210 0.1180378726
-0.0228383722 0.0490580157 0.0803406647
-0.0156052715 0.0541703453 0.1834931008
-0.0137752434 0.0475831854 -0.1956677885
0.0028511745 0.0427230831 0.3702716293
-0.0020249888 0.0434427210 0.3685255162
0.0238296172 0.0158514101 -0.2400018256
0.0205694627 0.0227251377 0.2749785578
0.0212959345 0.0122793573 0.2558205896
0.0200227518 0.0086475533 0.2544535546
0.0274360317 0.0042925695 -0.2187437260
-0.0211174341 0.0503769036 0.1596799329
-0.0206843877 0.0459662651 -0.1705725617
-0.0249918695 0.0463791250 -0.1019545156
-0.0195098641 0.0499389700 0.2002664455
-0.0187729794 0.0504761765 0.2007357529
-0.0053902256 0.0430151217 -0.2225074482
0.0098114223 0.0277749090 -0.2479407076
0.0308827692 0.0097345487 -0.1996888666
0.0091023557 0.0304963449 0.3445489347
0.0342506881 0.0143308813 0.1692636593
0.0120359451 0.0052429667 0.2759093655
-0.0154989043 0.0449285744 -0.2006808051
-0.0229499045 0.0436049782 -0.1705023161
-0.0186074226 0.0484377632 0.2227787328
0.0122772608 0.0269992903 0.3245163392
0.0158391192 0.0165722029 0.2913291570
0.0144552256 0.0135409684 0.2918400428
0.0335303831 0.0222662835 -0.1646539400
-0.0052395186 0.0343858806 -0.2408518841
0.0091918240 0.0256546306 -0.2509307193
0.0183449867 0.0067825855 -0.2570903812
0.0351790003 0.0146437284 0.0968065756
0.0130684354 0.0185359796 0.3090328896
-0.0262182799 0.0448012795 -0.0673715898
-0.0141339904 0.0377097756 0.3032635051
-0.0098132484 0.0403671097 0.3256432850
0.0351790003 0.0152200721 0.0988977289
-0.0240967206 0.0475304393 -0.0480441173
-0.0280901764 0.0423941731 0.0222291905
-0.0254913058 0.0457367646 0.0000632624
-0.0244568951 0.0470673977 0.0768276158
-0.0104516397 0.0387088508 0.3248483746
0.0313539713 0.0095786343 0.1900718018
0.0351790003 0.0220174094 0.1441665432
0.0027555654 0.0108585058 0.3248225679
0.0037180052 0.0112166919 0.3243418984
0.0345418181 0.0165497114 -0.1358343017
-0.0253106368 0.0459692274 0.1418967086
-0.0260967269 0.0449582101 0.1368004020
-0.0188114085 0.0420997562 0.2614051497
-0.0214283498 0.0404507046 0.2442699099
-0.0083297133 0.0360638005 0.3433513064
-0.0063616131 0.0323162733 -0.2435117121
0.0296947139 0.0371281665 -0.1493991820
0.0165246672 0.0072255598 -0.2603714548
0.0288090285 0.0123303159 0.2102836010
0.0007371870 0.0141141959 0.3430033991
0.0026889202 0.0266976137 0.3749266850
-0.0259757716 0.0442905795 0.1746859553
-0.0195218562 0.0343098528 -0.2217178374
-0.0266064482 0.0355301922 -0.1895471212
-0.0191074364 0.0329336410 0.2783542544
-0.0142070991 0.0359494790 0.3055954618
-0.0068215851 0.0057164126 0.2918572252
-0.0273830246 0.0347753731 0.2141652137
0.0322125064 0.0351375859 0.0825218404
-0.0051038577 0.0087156049 0.3083660619
-0.0002615746 0.0184783074 0.3599370092
-0.0274725674 0.0328425413 0.2164274504
-0.0215157591 0.0243329023 -0.2349274860
-0.0002389888 0.0164364207 -0.2654472079
0.0284768281 0.0132155484 0.2136529359
-0.0054409869 0.0233399090 0.3555904681
-0.0107740034 0.0081995444 0.2890816892
-0.0305252375 0.0375879259 -0.0676610245
-0.0006742098 0.0131092587 -0.2698275174
-0.0112227229 0.0217994473 0.3222915000
-0.0311110778 0.0076979717 0.1822318627
-0.0262089495 0.0095668179 -0.2287677077
-0.0334346708 0.0291680986 -0.0156809266
-0.0330148802 0.0311126322 -0.0134900072
-0.0328337159 0.0319518125 -0.0470164122
-0.0335258630 0.0287456827 -0.0462006557
-0.0342105017 0.0255743332 0.0047753200
-0.0323651579 0.0335759977 0.0550593784
-0.0233531710 0.0269902553 0.2552274728
-0.0331984755 0.0074285382 -0.0435774570
-0.0292949060 0.0095086755 -0.2082950281
-0.0346160010 0.0227363507 0.0070383230
-0.0327548677 0.0323160165 0.0509877482
-0.0305855119 0.0298492773 0.1968422796
-0.0109246530 0.0147441375 0.3080976883
-0.0193413147 0.0136521167 0.2664945470
-0.0176344108 0.0135200891 0.2744953366
-0.0225571420 0.0104971369 0.2413461692
-0.0330152760 0.0080410235 0.1616052856
-0.0340005567 0.0111506763 0.1418339878
-0.0343818721 0.0131934443 -0.1065906389
-0.0346160010 0.0183512908 -0.0298099731
-0.0329598440 0.0313654378 0.0709841261
-0.0329451622 0.0314360494 0.0332394160
-0.0316215906 0.0351976412 0.1218696267
-0.0274170136 0.0271352339 -0.2068672710
-0.0295950428 0.0361100188 -0.1495091470
-0.0310930923 0.0291467127 0.1940188996
-0.0160573921 0.0162436197 -0.2528151515
-0.0323450896 0.0049404526 -0.1232201987
-0.0181094093 0.0135366981 -0.2525340737
-0.0346160010 0.0226214043 0.1069289699
-0.0338894141 0.0270616593 0.1516633939
-0.0328949324 0.0316682482 0.1222852653
0.0251951164 0.0393076707 0.2217228937
-0.0334526989 0.0252484265 0.1725990549
-0.0264124840 0.0236439790 0.2329961878
0.0334655503 0.0298471420 -0.1178062807
-0.0335036490 0.0235041624 0.1737656790
-0.0334879382 0.0087720907 0.0696223512
-0.0346160010 0.0214349152 0.0839259849
-0.0313208598 0.0323334788 -0.1499683889
-0.0293588502 0.0401329281 -0.0301073345
-0.0284889541 0.0408752093 -0.1179631064
-0.0335983504 0.0092940095 -0.0851367901
-0.0346160010 0.0210386032 -0.0616020059
-0.0346160010 0.0199611000 -0.0649236504
-0.0346160010 0.0142243337 0.0236495028
-0.0329373240 0.0088854168 -0.1419191464
-0.0313399472 0.0174253264 -0.1931094223
-0.0323235249 0.0220732061 -0.1738983649
-0.0285616383 0.0153833982 0.2128146005
0.0329718801 0.0246292512 -0.1652515075
-0.0343887052 0.0129512049 0.0491755482
-0.0346160010 0.0182158856 0.0238367200
-0.0279014767 0.0142975343 0.2156119480
-0.0337784659 0.0151837785 -0.1462907393
-0.0323427233 0.0336248511 0.0931495941
-0.0339379030 0.0233423103 -0.1322894755
-0.0329109933 0.0184287161 -0.1676398683
0.0333336524 0.0305767722 -0.1167418460
0.0340374793 0.0248805625 -0.1374824858
-0.0344343739 0.0245381940 -0.0920797274
0.0297063133 -0.0028875454 -0.0476992846
0.0284791861 -0.0046373446 -0.1300870125
0.0285017165 -0.0045740330 -0.1338151937
0.0210123050 -0.0132281167 -0.0214582067
0.0325685694 0.0343605860 -0.0982902276
0.0105554488 -0.0187408428 -0.1833555984
0.0225620694 -0.0092756269 -0.2020889505
0.0228688683 -0.0117594916 0.1575043371
0.0126612383 -0.0184184483 -0.0889392982
0.0119287319 -0.0187357352 -0.0494929386
0.0110420890 -0.0176642105 -0.2139442192
0.0136420444 -0.0179936099 0.1405365439
0.0058652549 -0.0204178865 -0.1638991905
0.0223516351 -0.0031632234 0.2016674720
0.0195596481 -0.0111122289 0.1767734846
-0.0027060314 -0.0202326953 -0.1974342708
0.0013291624 -0.0182255787 0.1767798810
0.0214011813 -0.0058360713 0.1965812286
-0.0085907846 -0.0199372584 -0.0181704890
0.0202139095 -0.0080344556 -0.2324200179
-0.0056818440 -0.0204741513 0.1446550874
0.0048929745 -0.0141465093 0.1980984210
0.0058777574 -0.0139642372 0.1983449807
-0.0043103643 -0.0206621978 -0.0999050129
-0.0026608825 -0.0208900560 -0.1203952307
-0.0059961006 -0.0204307978 0.1409984009
-0.0001154531 -0.0053494574 0.2489614925
0.0026807731 -0.0042511108 0.2531551986
-0.0110009429 -0.0113907120 -0.2577111003
-0.0152585006 -0.0170495735 0.1224099665
-0.0150526193 -0.0163714717 -0.1858614082
-0.0114159057 -0.0186457395 -0.1503906030
0.0091227243 -0.0131340279 -0.2575940361
-0.0117061578 -0.0088722951 0.2130889162
-0.0166056356 -0.0152193965 0.1640713363
-0.0273000501 -0.0056726240 -0.0788274286
-0.0205715683 -0.0061590134 -0.2362476823
-0.0157751061 -0.0071479366 0.2088772630
-0.0154258227 -0.0115067996 0.1905081712
-0.0247268888 -0.0084797169 -0.1535108210
-0.0278192156 -0.0045275365 -0.1530169082
-0.0270433036 -0.0060038192 -0.0300090605
-0.0212838647 -0.0030058378 -0.2409729838
-0.0234720284 -0.0106115718 0.1447988099
-0.0278941944 -0.0049148555 0.0584531095
-0.0277153815 -0.0051372777 -0.0144146512
-0.0283464302 -0.0043357946 0.0830710343
0.0003975521 -0.0079454716 -0.2753825953
-0.0248773519 0.0465266158 0.1030306484
-0.0264622073 -0.0067625550 0.1143943523
-0.0005401306 -0.0068406115 -0.2765668919
-0.0291671577 -0.0028101330 -0.0100460521
-0.0288789722 -0.0034569042 0.1318583311
0.0310717393 0.0273244209 -0.1829834088
-0.0332880504 0.0288533580 -0.1109292630
-0.0331426277 0.0273161757 -0.1295604409
0.0333084054 0.0323645339 0.1063816227
0.0284768995 -0.0049000634 0.0059837968
0.0266595045 -0.0072379588 -0.0657435156
0.0283443736 -0.0050488351 -0.1047252213
0.0226320060 -0.0110292323 -0.1732879503
0.0255992484 -0.0086018713 0.0867810692
0.0236242434 -0.0111425160 0.0228870571
0.0264471087 -0.0075111845 0.0841705552
0.0223136772 -0.0121986727 -0.0238774548
0.0227119106 -0.0116523491 -0.1577592572
0.0155662189 -0.0171299622 -0.1304086259
0.0230843056 -0.0088260393 -0.1997265507
0.0119246254 -0.0187375139 -0.0893489831
0.0086482824 -0.0187163062 -0.2142613062
0.0087712512 -0.0195262528 -0.1825077883
0.0061287893 -0.0204252444 -0.1610550395
0.0046390353 -0.0206961035 -0.1423176539
0.0087768675 -0.0201009727 0.1526166720
0.0184117500 -0.0120757965 0.1764616324
-0.0074022958 -0.0202368053 -0.0362831253
0.0045649294 -0.0207070575 0.1066168358
0.0120734860 -0.0082251398 0.2164015671
0.0128257944 -0.0077849730 0.2169569771
-0.0018724810 -0.0182299828 0.1757623668
0.0201798670 0.0034224385 0.2352122271
-0.0030300522 -0.0084306578 0.2300929764
-0.0093856882 -0.0140763036 -0.2521457596
-0.0188367491 -0.0111951740 -0.2213538495
-0.0157299435 -0.0163763199 -0.1681486568
0.0149091638 -0.0099439554 -0.2516179412
-0.0191169356 -0.0131146604 0.1647483127
-0.0221547097 -0.0087441683 -0.2035169194
-0.0175815093 -0.0153556638 -0.1327980050
-0.0198370993 -0.0086675637 0.1869925786
-0.0192898630 -0.0139937238 -0.1361516494
0.0328405844 0.0039209251 -0.0129635413
0.0300528745 -0.0021351933 -0.0489334540
0.0317684886 0.0015919035 -0.0310149429
0.0308277512 -0.0004518074 0.0302538655
0.0298415373 -0.0025943140 0.0648003752
0.0302967832 -0.0016053121 0.0647205115
0.0310110258 -0.0000531846 0.1375566594
0.0323967310 0.0029566890 0.1385595204
0.0308924727 -0.0003113054 0.1113248079
0.0306945964 0.0016640689 -0.1684011327
0.0316826541 0.0014056647 0.1561964273
0.0298611302 0.0013847560 -0.1839054268
0.0267814207 0.0018462577 -0.2196395020
-0.0024584132 -0.0008506838 0.2698818555
-0.0054307098 0.0001620667 0.2713573150
-0.0158038430 0.0033622978 0.2541972337
-0.0272864467 -0.0024826194 -0.1889021311
-0.0194291388 0.0001286858 0.2252163688
-0.0303174065 0.0016615465 0.1660186438
-0.0318194775 0.0029394166 -0.0605124998
-0.0307270809 0.0005607840 0.0102900628
-0.0300945520 -0.0008073691 0.0103263679
-0.0304435735 0.0028584503 -0.1734328354
-0.0268877846 0.0033930985 0.1982881715
-0.0133794411 0.0040848349 -0.2657687959
-0.0324197235 0.0042297891 0.0957210532
-0.0307811928 0.0006712666 0.0986011687
-0.0224155440 -0.0235291701 -0.0400043147
-0.0237214384 -0.0166422170 -0.0968344044
-0.0075319678 -0.0210777422 -0.0926699624
-0.0214697519 -0.0208420860 -0.0756941052
-0.0183466907 -0.0222425890 -0.0584360851
-0.0259037769 -0.0249781689 -0.0179941573
-0.0164075426 -0.0267937443 0.0061946567
-0.0179011179 -0.0267167308 0.0052892332
-0.0268046492 -0.0061659308 -0.1208408032
-0.0022477604 -0.0223253354 -0.0734824312
-0.0131783308 -0.0272791049 0.0263447345
-0.0028511844 -0.0229089180 -0.0561803087
0.0001068279 -0.0276916379 -0.0017331379
-0.0140048739 -0.0174077478 -0.1158840216
0.0019821255 -0.0286554319 0.0177343178
-0.0270485304 -0.0240250713 0.0748509765
-0.0092941580 -0.0244608384 0.0747552784
-0.0130571749 -0.0254796080 0.0569896552
-0.0093906129 -0.0244325490 0.0752191037
-0.0293913250 -0.0206418641 0.0731904727
-0.0264513060 -0.0262351317 0.0423002716
0.0137972693 -0.0216952739 -0.0696472965
0.0057081822 -0.0243178248 -0.0294343684
0.0178567875 -0.0272104555 0.0120994273
0.0093528887 -0.0254483770 -0.0134764234
0.0183568988 -0.0270417577 0.0097969858
-0.0014958079 -0.0243545779 0.0893514944
-0.0301233840 -0.0022242815 0.0303091373
0.0275038172 -0.0225141380 -0.0546106122
0.0246442513 -0.0235576113 -0.0385271088
0.0012503863 -0.0275292880 0.0431810206
0.0081060224 -0.0190757565 0.1232434839
-0.0238633976 -0.0224388463 0.0951517380
-0.0225078063 -0.0206488504 0.1030212342
0.0052580973 -0.0195906427 0.1227277668
-0.0065496098 -0.0211522107 0.1063995179
0.0299528158 -0.0202782165 -0.0387959237
0.0279192220 -0.0245319372 -0.0043643133
0.0275759383 -0.0249406932 -0.0058390042
0.0244612572 -0.0248062096 0.0668924195
0.0267300320 -0.0247209026 0.0680069029
0.0058527623 -0.0254221880 0.0590436947
0.0183106590 -0.0238687917 0.0836253340
-0.0302624339 -0.0065307512 0.0495634737
-0.0165428618 -0.0177921374 0.1223937625
0.0149037441 -0.0237169952 0.0866042524
0.0149399487 -0.0185061698 -0.1073724876
0.0134989701 -0.0184400168 -0.1097860815
0.0245429494 -0.0198534598 0.1043214175
0.0279854465 -0.0166828971 0.1020325302
0.0237654718 -0.0098225812 0.1273212241
-0.0742656082 -0.0175481716 0.0410492753
-0.0663070008 -0.0176032924 0.0253494681
-0.0714731203 -0.0234310003 0.0416609787
-0.0686876550 -0.0202542000 0.0029316751
-0.0697643334 -0.0186417047 0.0674672081
-0.1113690063 -0.0157567610 0.0270241078
-0.1140172592 -0.0126603655 0.0484639141
-0.1127421707 -0.0164155495 0.0483006145
-0.1095399955 -0.0155136333 0.0766474979
-0.1502098810 -0.0093511205 0.1012043064
-0.1510855165 -0.0105109414 0.0788286323
-0.1503970176 -0.0082202417 0.1035204027
-0.1475481252 -0.0078032639 0.0492276394
-0.1916374064 -0.0007501433 0.0807505974
-0.1906512426 0.0016466261 0.0631832468
-0.1861612363 0.0006211121 0.0613051996
-0.1887145208 -0.0024575636 0.1137988811
-0.1859083375 -0.0034051649 0.0967691413
-0.2188628937 0.0011288376 0.1305182143
-0.2194240921 -0.0003847290 0.1001503663
-0.2192485863 0.0023086661 0.1298400541
-0.2193791607 -0.0004475088 0.1081048473
-0.1337549808 -0.0090718891 0.0146779994
-0.1373785972 -0.0039024329 -0.0349961072
-0.1373919130 -0.0087386347 -0.0044717174
-0.1367769730 -0.0121957042 0.0122201606
-0.2255451495 0.0092887607 0.0665621146
-0.2260873628 -0.0033249999 0.0794650981
-0.0385681472 -0.0223226585 0.0562006804
-0.0303911952 -0.0229312994 0.0251736781
-0.1203248671 -0.0065982201 0.0666242226
-0.1348420978 -0.0055584363 0.0794551463
-0.1248617660 -0.0074670201 0.0672573694
-0.1687842847 -0.0005764212 0.0891898882
-0.2035250802 0.0053766016 0.1065913234
-0.2759265215 0.0156476395 0.1337271851
-0.2746982358 0.0144783304 0.1360702169
-0.2934590519 0.0169264293 0.1463992734
-0.2971507745 0.0173817071 0.1470703913
-0.3239305829 0.0205758941 0.1511357771
-0.0576455060 -0.0182245688 0.0549904087
-0.0564637365 -0.0190705460 0.0542383128
-0.0502174089 -0.0197023159 0.0363954001
-0.0348506740 -0.0219859257 0.0196762017
-0.0491067066 -0.0199006109 0.0365035716
-0.0979566193 -0.0114440900 0.0654032864
-0.0823517682 -0.0146730127 0.0609139680
-0.1673030530 -0.0008316147 0.0917783819
-0.2019739583 0.0045357029 0.1088989904
-0.2362241938 0.0115475810 0.1115755409
-0.2373720509 0.0116328634 0.1124282481
-0.2512506362 0.0115681351 0.1298724447
-0.2521893295 0.0116649316 0.1300479253
-0.0508664246 -0.0117740773 0.0064936458
-0.0741282551 -0.0072628237 0.0119699280
-0.0900063068 -0.0056647254 0.0229588157
-0.0569559650 -0.0042721949 -0.0282895859
-0.0898496712 -0.0088396663 0.0403596475
-0.0986347400 -0.0008289331 0.0035312309
-0.1082579077 0.0031624534 -0.0205097239
-0.0511744748 -0.0028079243 -0.0504126471
-0.0725009711 -0.0008525154 -0.0374022075
-0.1447937814 -0.0006571836 0.0655552972
-0.1298360687 -0.0016332884 0.0509499096
-0.1280991951 0.0011184364 0.0315539517
-0.1243086753 0.0000100774 0.0342992411
-0.1474555076 0.0042472041 0.0368304297
-0.1860211105 0.0103367892 0.0458624885
-0.1312410335 0.0053524641 -0.0185999325
-0.1263646882 0.0049641827 -0.0184958575
-0.1677199108 0.0032434663 0.0718332083
-0.1065700768 0.0011896282 -0.0431426435
-0.1785847245 0.0087308560 0.0088509568
-0.2075398232 0.0103037323 0.0798369826
-0.2053477187 0.0124477764 0.0575210598
-0.2048529585 0.0125904190 0.0531930564
-0.2348525891 0.0138018596 0.0930005026
-0.2319290877 0.0155124626 0.0689731223
-0.2703905301 0.0192013801 0.0771327148
-0.2732898677 0.0180902087 0.0766210563
-0.0438875584 -0.0064423481 -0.0887008565
-0.3112390148 0.0227248371 0.1318818162
-0.2931947351 0.0207757762 0.1214870036
-0.2914666158 0.0195844178 0.0895382852
-0.0920740351 -0.0041735698 -0.0497992828
-0.1816651237 0.0052675369 0.0133490721
-0.3053547637 0.0194104162 0.1047738049
-0.3296780531 0.0223353287 0.1207985967
-0.3456683656 0.0241360634 0.1385852008
-0.1872381696 0.0041020784 0.0441304489
-0.1896020936 0.0028933100 0.0817095833
-0.3370149926 0.0228619944 0.1631381722
-0.0390663925 -0.0124977196 -0.0690240065
-0.1168116266 -0.0048020170 -0.0016807059
-0.1660723460 -0.0004099781 0.0669003975
-0.1647561214 0.0006221509 0.0437008723
-0.2807670668 0.0157297427 0.1062364977
-0.2544342407 0.0123110496 0.0968511281
-0.0431736000 -0.0150120195 -0.0357916587
-0.0703244481 -0.0115235643 -0.0230404052
-0.0966878597 -0.0117390031 0.0443135828
-0.0888967181 -0.0114561336 0.0217013732
-0.0316075529 -0.0153804015 -0.0525228570
-0.0488706023 -0.0159741339 -0.0152604444
-0.0527131328 -0.0124418262 0.0121719352
-0.0641122962 -0.0121039629 0.0251151275
-0.0664751710 -0.0055848852 -0.0084981396
-0.0915507390 -0.0025525186 0.0053090785
-0.1139337645 -0.0000533504 0.0198890485
-0.0498176418 -0.0029017443 -0.0514617898
-0.0855922112 0.0001694436 -0.0252608425
-0.0870464617 0.0004319960 -0.0259485561
-0.1470370987 0.0000203737 0.0644270678
-0.1457633318 0.0047933819 0.0301202542
-0.1324193946 0.0051928272 0.0018046624
-0.1497930145 0.0069652197 0.0146910951
-0.1477020419 0.0068998785 -0.0088814562
-0.0510918245 -0.0012677681 -0.0719702349
-0.0690331749 0.0006414222 -0.0651703759
-0.1780374795 0.0099674707 0.0301375288
-0.0886678344 0.0019021275 -0.0530578258
-0.1490293000 0.0064661309 -0.0114989102
-0.0722432104 -0.0008866703 -0.0662422157
-0.1202891997 0.0016042643 -0.0344183651
-0.1974936629 0.0112358233 0.0230276223
-0.2091144629 0.0105698505 0.0801313505
-0.0304540322 -0.0042333463 -0.1048916712
-0.2580891553 0.0154970279 0.1125623925
-0.2646720979 0.0162920645 0.1157168724
-0.2322292406 0.0153009058 0.0509526939
-0.3101971791 0.0220472122 0.1035626114
-0.1652389793 0.0036156996 -0.0000949917
-0.2562292078 0.0149252480 0.0644325784
-0.2336133393 0.0129471595 0.0473717829
-0.3094425126 0.0224364231 0.1315809594
-0.2701545336 0.0195064703 0.0960160822
-0.0425603830 -0.0075819830 -0.0896563798
-0.2079032545 0.0080777692 0.0346581585
-0.3230596032 0.0214666045 0.1174584046
-0.3423560048 0.0237860163 0.1340300663
-0.1642703536 0.0017236701 0.0183870689
-0.1054601656 -0.0058892693 -0.0155587513
-0.1181551350 -0.0047570097 0.0013797962
-0.1691144804 0.0012091785 0.0471077699
-0.2521450315 0.0120024556 0.0964335336
-0.2927305393 0.0170066178 0.1201588257
-0.3281715868 0.0211119542 0.1501233781
-0.2499476220 0.0121797439 0.0794805707
-0.2324575666 0.0093863055 0.0915210198
-0.0440221215 -0.0149499976 -0.0349979789
-0.0831888944 -0.0100349993 -0.0098563929
-0.0832609663 -0.0102447916 -0.0070885555
-0.0425701525 -0.0169728266 -0.0176665912
-0.3533631013 0.0287133027 0.1730772752
-0.3530427279 0.0262592223 0.1544416424
-0.3524809653 0.0277733283 0.1545004164
-0.0401416293 -0.0363795727 -0.0114472711
-0.0529277697 -0.0421591883 -0.0123212813
-0.0561304337 -0.0398903332 0.0127297175
-0.0528239549 -0.0453176073 0.0096199167
-0.0400040001 -0.0361705146 0.0075516850
-0.0378997144 -0.0211605599 -0.0008231564
-0.0127360510 -0.0388196995 0.0390489995
-0.0115229262 -0.0384703038 0.0401525489
-0.0209709218 -0.0441223066 0.0595996211
-0.0226975400 -0.0418938186 0.0546001323
-0.0209720726 -0.0443268420 0.0204210866
-0.0226586552 -0.0421308128 0.0241143436
0.0081536427 -0.0069431178 0.0409986347
0.0055324224 -0.0082452104 0.0385502397
-0.0144061281 -0.0123221379 0.0387058640
-0.0163936203 -0.0112499837 0.0343788396
-0.2374347458 -0.0050581564 0.0528213660
-0.2387635890 -0.0090158995 0.0523642315
-0.2266200844 -0.0246855059 0.0443535588
-0.2148649409 -0.0057800962 0.0512524194
-0.2143313932 -0.0093888301 0.0526460162
-0.2321939871 -0.0238572841 0.0417833761
-0.2381338666 -0.0013721848 0.0331816232
-0.2155375618 -0.0002108005 0.0164848951
-0.2117509153 -0.0133224434 0.0307737188
-0.2206714840 -0.0246062111 0.0147567056
-0.2240718699 0.0035576779 0.0024989483
-0.2368137451 0.0004649720 0.0158494762
-0.2221950263 0.0035823369 0.0316407787
-0.2378965173 -0.0032814696 -0.0019304986
-0.2127140652 -0.0042608031 0.0157664029
-0.2127607017 -0.0151412416 0.0362229827
-0.2385522330 -0.0202616886 0.0222908802
-0.2144263306 -0.0169458274 -0.0015731253
-0.2366078281 -0.0213079422 0.0048545986
-0.2204340677 -0.0245641617 0.0159742094
-0.2147076139 -0.0132406791 -0.0009598206
-0.2240417547 -0.0112097614 0.0684842067
-0.1306033195 -0.0095513510 -0.0737615090
-0.1300665405 -0.0087571761 -0.0721345987
-0.1452837643 -0.0131700610 -0.0255811805
-0.1489711017 -0.0154956919 -0.0673852939
-0.1236803802 -0.0183081983 -0.0234334502
-0.1235817296 -0.0213050507 -0.0219858000
-0.1490525052 -0.0281377133 -0.0408020589
-0.1325811211 -0.0367412699 -0.0474853707
-0.1321580231 -0.0069945790 -0.0562034770
-0.1472105034 -0.0126002355 -0.0671935579
-0.1475733148 -0.0124405616 -0.0471106798
-0.1471825103 -0.0150807076 -0.0275638231
-0.1224297764 -0.0141355109 -0.0443144594
-0.1201995763 -0.0216879818 -0.0493775868
-0.1487645674 -0.0290512853 -0.0437884850
-0.1226489280 -0.0284033136 -0.0681996830
-0.1383439206 -0.0347934164 -0.0284544150
-0.1371261876 -0.0337336241 -0.0234130366
-0.1352436188 -0.0236010563 -0.0010928656
-0.1388840828 -0.0327277199 -0.0660770014
0.0695023603 -0.0220111285 0.0679931027
0.0726637728 -0.0228416632 0.0458087074
0.0719905741 -0.0206383732 0.0664529027
0.0694878932 -0.0235167439 0.0442891556
0.0689771862 -0.0223761345 0.0111104276
0.0703166915 -0.0161975675 -0.0086712890
0.0667586173 -0.0190905784 0.0095550538
0.1122269464 -0.0163796477 0.0615989424
0.1099926574 -0.0159082120 0.0808258550
0.1082162931 -0.0166387567 0.0366279058
0.1080042148 -0.0113855984 0.0142225735
0.1111657730 -0.0168452458 0.0559079332
0.1079673890 -0.0067385138 0.0117901056
0.1507806018 -0.0088709965 0.0985766846
0.1494138417 -0.0105327362 0.0773881571
0.1465450763 -0.0085160432 0.0624120688
0.1530479789 -0.0049858466 0.0448618204
0.1856171470 0.0057005573 0.0582690541
0.1875664402 -0.0009548656 0.1179676895
0.1855383929 -0.0038295537 0.0882819666
0.2154986802 0.0042097282 0.1098930378
0.2174528142 0.0002196483 0.0919334332
0.1365006668 -0.0107541149 0.0146910780
0.1338365830 -0.0086687260 0.0193833926
0.1364520310 -0.0023560082 -0.0426128826
0.1370070246 -0.0017617339 -0.0384589540
0.2279355544 0.0004401007 0.0736306528
0.2242621838 -0.0024196153 0.0778755763
0.0585263883 -0.0140730931 0.0287747853
0.0827372616 -0.0109445386 0.0435039614
0.0869784663 -0.0138313369 0.0609595395
0.1294656847 -0.0067676435 0.0732579017
0.1281012092 -0.0069974493 0.0730704750
0.1677920151 -0.0003203989 0.0932510919
0.1705029307 -0.0003193800 0.0968803171
0.1514460341 -0.0032708547 0.0810177463
0.2001527300 0.0061670182 0.0978192851
0.1974285990 0.0038430621 0.1025998171
0.3210881347 0.0207572312 0.1568330349
0.3018607837 0.0179581925 0.1465816701
0.3002143780 0.0177666024 0.1468717604
0.0350877573 -0.0220186136 0.0503363781
0.0587365337 -0.0142636831 0.0305561168
0.0507616990 -0.0201565272 0.0585869178
0.0553176981 -0.0192693255 0.0551958291
0.0323902995 -0.0231740611 0.0481840561
0.0372050935 -0.0218146267 0.0300280879
0.0412363685 -0.0211179038 0.0308911980
0.0949170909 -0.0114333406 0.0621797288
0.2129559812 0.0062275150 0.1130407576
0.2444668751 0.0112138968 0.1239578244
0.2851690511 0.0159623589 0.1435660160
0.3197769682 0.0206471966 0.1558961584
0.2603036618 0.0127298695 0.1337117145
0.0974593856 -0.0047781498 0.0276119561
0.0483853984 -0.0047705953 -0.0342215664
0.0889073108 -0.0040674883 0.0122972044
0.0878574185 -0.0042959087 0.0123727168
0.0660335760 -0.0012986968 -0.0433358614
0.1006855985 0.0020334423 -0.0195257961
0.0812277198 -0.0005883628 -0.0227822950
0.1159568429 -0.0037002619 0.0454825692
0.1195256305 0.0005498446 0.0235595708
0.0785450571 -0.0007847783 -0.0259138642
0.0704258666 -0.0005650561 -0.0451075149
0.1123583858 0.0028357445 -0.0049542318
0.1332713054 -0.0012819229 0.0537600849
0.1338069268 0.0016297191 0.0365178790
0.1434979261 0.0062393462 0.0123287385
0.1641854256 0.0064100585 0.0447904942
0.1648409586 0.0084830683 0.0249781291
0.1190265509 0.0041086211 -0.0319670094
0.1896361029 0.0073198283 0.0757692091
0.1702162559 0.0034429120 0.0743009392
0.1628617192 0.0081732455 0.0262543911
0.1818606738 0.0101216193 0.0408230199
0.0771049763 0.0006457544 -0.0613809196
0.1443204086 0.0055378933 -0.0152855141
0.2071056774 0.0098576759 0.0825077258
0.2036289181 0.0116961539 0.0615582406
0.2178001641 0.0137970656 0.0652958421
0.2212616610 0.0121794624 0.0384885748
0.2270161317 0.0131276446 0.0865705443
0.1059295608 -0.0018543516 -0.0429869592
0.1754597672 0.0065663182 0.0057465846
0.2840109945 0.0185005125 0.1261825025
0.2677479709 0.0163388309 0.1198624266
0.2637939471 0.0180397403 0.1004776690
0.2342931730 0.0156443603 0.0544115872
0.2776970325 0.0167000608 0.0808753200
0.3222276285 0.0249398318 0.1331307246
0.2740803050 0.0200323830 0.0867049013
0.1587538868 0.0027114362 -0.0030155943
0.2933776634 0.0181851630 0.0942971996
0.3022599428 0.0219614220 0.1255142865
0.3433319579 0.0266720149 0.1344118613
0.2493265756 0.0129867055 0.0635666284
0.2499113299 0.0131843990 0.0624588254
0.3196827703 0.0204304007 0.1318113691
0.0400785583 -0.0125794670 -0.0668293712
0.0962799574 -0.0081415259 -0.0042849823
0.0929623241 -0.0084983827 -0.0071232668
0.1155344118 -0.0047861913 -0.0049541920
0.2444360748 0.0109891858 0.0950074728
0.2863913082 0.0160965785 0.1218305560
0.2425449432 0.0111757586 0.0792290001
0.3417032009 0.0232650048 0.1525402063
0.0764344927 -0.0144015248 0.0279406396
0.0447055258 -0.0163477226 -0.0194438820
0.0656451660 -0.0117818178 -0.0298163136
0.0407618999 -0.0200229466 0.0101617084
0.0476978042 -0.0104125535 -0.0038186665
0.0549599958 -0.0085370315 -0.0053525857
0.0954800662 -0.0054358341 0.0286863147
0.0779111860 -0.0036531435 -0.0054457317
0.0986926704 -0.0077643432 0.0461994689
0.1189805650 -0.0026980629 0.0435622235
0.1231827539 0.0034139004 0.0086218209
0.1320370111 -0.0018050419 0.0553200489
0.1409695616 0.0060099675 0.0098459659
0.1275203418 0.0052288850 -0.0134255051
0.1601151257 0.0031393180 0.0626424191
0.0242371149 -0.0042195452 -0.0854709375
0.0527810295 -0.0002894495 -0.0768132788
0.1188371586 0.0041411324 -0.0296932766
0.1870191133 0.0092053308 0.0571151236
0.1845990592 0.0105505669 0.0385251851
0.1802833263 0.0101714761 0.0160274046
0.2021005423 0.0121928205 0.0277942495
0.0566045237 -0.0022497533 -0.0771724544
0.2223913149 0.0126147021 0.0396526383
0.2292185765 0.0111896405 0.1048281361
0.0428715009 -0.0037777691 -0.0904009444
0.1994096853 0.0079571037 0.0240498593
0.2589787414 0.0185396707 0.0772095835
0.3200692717 0.0236260527 0.1114389074
0.0308382776 -0.0076126362 -0.1061344224
0.0900540277 -0.0045927192 -0.0494289262
0.3030704659 0.0222335020 0.1250727900
0.0429374003 -0.0080632448 -0.0881500547
0.1588822603 0.0025756822 -0.0014150597
0.2966331155 0.0182801437 0.1005027034
0.3372350530 0.0239884599 0.1560335810
0.3420798497 0.0267154364 0.1347503019
0.0626153610 -0.0093022770 -0.0580885373
0.1492007418 -0.0011988483 0.0275693200
0.2016065788 0.0063760192 0.0438317515
0.0953840562 -0.0064183568 -0.0319317605
0.1739686637 0.0005473982 0.0756077508
0.1937550649 0.0038731857 0.0749465606
0.2446187880 0.0104753872 0.1138623533
0.2803393364 0.0156982191 0.1061330551
0.2633803734 0.0134824737 0.1005781529
0.0469926725 -0.0130593816 -0.0499794306
0.0447346749 -0.0160191119 -0.0225157474
0.0637156559 -0.0123268124 -0.0272766529
0.0440913356 -0.0195646291 0.0126589475
0.3527934252 0.0302325176 0.1686000104
0.3527776805 0.0233223410 0.1690819433
0.0421446196 -0.0454291235 -0.0070576742
0.0423202088 -0.0435709338 -0.0114229826
0.0549744403 -0.0422400364 0.0088688294
0.0415036146 -0.0374359454 0.0152691841
0.0473424641 -0.0272207518 -0.0049641303
0.0109448859 -0.0447496796 0.0425794609
0.0091201419 -0.0422724475 0.0452883788
0.0241415292 -0.0360272752 0.0368401415
0.0242366759 -0.0429611847 0.0541767604
0.0233845725 -0.0427620586 0.0606605287
0.0073617007 -0.0431310790 0.0248897475
0.0242716574 -0.0425135914 0.0215631899
0.0154126709 -0.0220907976 0.0361002314
0.2369494795 -0.0016578791 0.0462609660
0.2215525698 -0.0240826744 0.0428054267
0.2152014111 -0.0044186147 -0.0030702857
0.2140434302 -0.0017673340 0.0138130325
0.2416001486 -0.0098945296 0.0122712093
0.2390698000 -0.0176659039 0.0359469958
0.2142631080 -0.0198096490 0.0270249000
0.2148002604 -0.0202052160 0.0064693819
0.2325066654 -0.0235125922 0.0031314999
0.2292358701 -0.0258434612 0.0220707005
0.2232736654 -0.0239498791 0.0417618571
0.2298542083 0.0011840448 -0.0004338168
0.2390666679 -0.0025244319 0.0255125063
0.2174679767 0.0015679474 0.0238423937
0.2140392896 -0.0054809505 0.0434435401
0.2144810998 -0.0088321479 0.0489326625
0.2391639978 -0.0171954595 0.0367925406
0.2141208599 -0.0194547140 0.0091864077
0.2143429169 -0.0199543326 0.0266246918
0.2295262879 0.0013428417 -0.0014105293
0.2340226431 -0.0197792560 0.0002622698
0.2348620112 -0.0023785404 0.0491110012
0.2271338806 -0.0147757928 0.0612891091
0.1418661822 -0.0100383914 -0.0222566243
0.1226427354 -0.0172073843 -0.0231611534
0.1296764211 -0.0329545050 -0.0204065576
0.1467476584 -0.0287402571 -0.0233543655
0.1386092305 -0.0070344251 -0.0591112293
0.1495871862 -0.0182128227 -0.0361130470
0.1231502959 -0.0159732936 -0.0280829832
0.1204096325 -0.0187132549 -0.0476150774
0.1203654174 -0.0212736925 -0.0664101751
0.1256984898 -0.0327610271 -0.0364443477
0.1276427733 -0.0347617649 -0.0558724210
0.1397580833 -0.0345977378 -0.0720868908
0.1328938511 -0.0093989859 -0.0732245916
0.1469249282 -0.0156243807 -0.0737150268
0.1503716941 -0.0187113228 -0.0525097281
0.1227189337 -0.0132427334 -0.0483928416
0.1496192691 -0.0206126431 -0.0706267719
0.1239220033 -0.0247381078 -0.0686093164
0.1456838628 -0.0330202202 -0.0482627157
0.1443379992 -0.0335954993 -0.0391542138
0.1387119451 -0.0353086940 -0.0689209493
0.1358357665 -0.0226032100 0.0025707729
0.1368864393 -0.0203227780 0.0003047658
