-0.1360430344 -0.0465826670 -0.0259272814
0.1089025773 -0.0422580529 -0.0290608406
-0.0050429887 0.0681409281 0.3048011127
-0.0062059570 0.0852855994 0.3093443174
-0.0028463352 0.0490561356 0.2907877746
-0.0011060000 0.0403583964 0.2763876920
-0.0009197014 0.0285335087 0.2645987814
0.0051040655 0.0245409083 0.2821756518
0.0055567499 0.0243118981 0.2812437940
-0.0184591130 0.0243075846 0.2735462397
0.0070297914 -0.0219207936 0.2404336695
0.0147509143 -0.0023568638 0.2668549945
0.0011977299 -0.0122157830 0.2740256443
-0.0244608480 -0.0080016413 0.2628294160
-0.0330061652 -0.0102687241 0.2347574681
-0.0159271162 -0.0190064907 0.2511480611
0.0124325259 0.0063082875 0.2800356635
-0.0054251601 0.1147398056 0.3151474687
-0.0064129534 0.0890520122 0.3093001164
-0.0053969796 0.1454719207 0.3207361883
-0.0062931763 0.1125291590 0.3140766714
-0.0054585484 0.0371310871 0.3022747950
-0.0025904012 0.1250806610 0.2999431660
-0.0071419509 0.0638716161 0.3009284540
-0.0061086972 0.1687870026 0.3212492907
-0.0014664679 0.0669842265 0.2686636679
-0.0016782475 0.0779296353 0.2785073923
-0.0101670132 0.0617039781 0.2815875909
-0.0024637889 0.0977708783 0.2768060014
-0.0096282678 0.0895693486 0.2908727537
-0.0097022236 0.0857374212 0.2903590628
-0.0042692477 0.0226806076 0.3122592597
-0.0104250005 0.0473977165 0.2636781754
-0.0052618600 0.1020160268 0.2568433706
-0.0057337624 0.1046447176 0.2544105393
-0.0063561666 0.1152626783 0.2677072052
-0.0061543974 0.0882075130 0.2452498451
-0.0058378793 0.0710153129 0.2292073465
-0.0115006982 -0.0004181052 0.2994209935
0.0051692443 0.0145721290 0.3000639400
-0.0056622986 0.0717931599 0.2301144799
-0.0037676906 0.0543535714 0.2346505922
0.0049083967 -0.0049540152 0.2875406764
0.0240658500 -0.0051106956 0.2362305363
-0.0060748809 -0.0161066691 0.2668132278
-0.0159337729 0.0288539121 0.2474723517
0.0047033103 -0.0178280576 0.2545183327
0.0183986713 -0.0062157089 0.2505812927
-0.0253344505 -0.0066411963 0.2627729350
-0.0196401362 -0.0047803408 0.2815357676
-0.0179233034 -0.0243173181 0.2336055744
0.0015183039 -0.0278096445 0.2241805829
0.0012633653 -0.0276955592 0.2249097360
0.0257897747 -0.0131488466 0.2092591063
-0.0319553560 0.0024944312 0.2499788451
-0.0237674572 -0.0317677916 0.1930811711
-0.0255049296 -0.0243775025 0.2150227324
-0.0080447942 -0.0325731281 0.2088578035
0.0089239261 0.0289859227 0.2273685105
-0.0247530185 0.0251818761 0.2318794831
0.0078965635 -0.0387281239 0.1718076304
0.0162963898 -0.0249393735 0.2062016238
0.0297620065 -0.0133322583 0.1911639622
0.0693236331 0.0130430152 0.2789592296
0.0556919647 0.0105800598 0.2697913557
0.0324887383 0.0067692469 0.2589960419
0.0470426162 0.0079928149 0.2510585681
0.0854796942 0.0153693318 0.2823521541
0.0899467852 0.0160605042 0.2838948471
0.1073037107 0.0190908084 0.2942352189
-0.0227839890 0.0141257329 0.2844759661
-0.0777705610 0.0114328121 0.2636117090
-0.0477596081 0.0061904509 0.2456970470
-0.0614878792 0.0095128104 0.2655440011
-0.0696146784 0.0116373150 0.2792815886
-0.0360956635 0.0067635604 0.2716449199
-0.0381039424 0.0068346112 0.2693169432
-0.1084550100 0.0200168345 0.3031063901
-0.0910692742 0.0163579785 0.2948713304
-0.0405550710 -0.0068475834 0.2061860992
-0.0110100168 -0.0402482297 0.1735089954
0.0214660223 0.0146131276 0.2348647088
-0.0056388261 0.0441109885 0.1997992775
-0.0259962091 0.0178369087 0.2603143818
0.0246522854 -0.0287307066 0.1659367735
0.0313903851 -0.0104218541 0.1901563514
0.0987622905 0.0209480663 0.3092223467
0.0714309452 0.0175101441 0.2991095883
0.1219203132 0.0228237924 0.3095973936
0.1192034978 0.0230044026 0.3127183681
0.0529432052 0.0168580550 0.2956034002
-0.0408404498 0.0144396119 0.2892641120
-0.0717152600 0.0168523999 0.2998728327
-0.1272988420 0.0231281606 0.3121888828
-0.1257003987 0.0225479956 0.3122559104
-0.1469509823 0.0243360924 0.3131257124
-0.1093447684 0.0202168997 0.3040430069
-0.0712558773 0.0165124909 0.2985381535
-0.0083815612 -0.0514711986 0.1045902778
-0.0307165402 0.0219018099 0.2142579482
0.0074557003 -0.0476336615 0.1140278574
0.0151848704 -0.0377359745 0.1557638716
0.0282208659 0.0038609406 0.2116173380
0.0325446755 0.0140338282 0.2927743738
0.0246772612 0.0130140234 0.2914573767
0.0534792055 0.0168239716 0.2960309162
0.0954512308 0.0216595788 0.3050164945
0.1401494887 0.0249936593 0.3092297677
0.0760652742 0.0205008193 0.2970392370
-0.1514242068 0.0251541358 0.3166397291
-0.0379895853 0.0021178038 0.2235522337
0.0362445765 0.0066358036 0.2342759609
0.1403929450 0.0261066440 0.3116179761
-0.0566515943 0.0176854028 0.2873989569
-0.1014904629 0.0153434989 0.2708464674
-0.0644285259 0.0085530999 0.2475656875
-0.0247175367 -0.0390067172 0.1585728184
-0.0053128918 -0.0544533727 0.0807243628
0.0205283447 0.0171410413 0.2686857699
0.0213946605 0.0174818259 0.2529212453
0.0401720605 0.0188955939 0.2759142235
0.0469040450 0.0197844740 0.2608316576
0.0691892428 0.0216973021 0.2737446125
0.0386690606 0.0193131767 0.2416554240
-0.0511039614 0.0189392183 0.2697553852
0.0599106925 0.0144316280 0.2450684914
-0.0538169463 0.0194432123 0.2547776216
-0.0339974080 0.0177380700 0.2435029781
-0.0376777172 0.0183022827 0.2304827523
-0.0803579672 0.0215303646 0.2818346933
-0.1027132567 0.0235855532 0.2864663646
-0.1220628846 0.0253436734 0.2917985896
0.0328202663 0.0050515437 0.1801827441
0.1228754919 0.0228039825 0.2865382390
-0.0717062665 0.0211251061 0.2508746924
0.1062281914 0.0211096751 0.2737432645
0.0888352861 0.0211915372 0.2663885024
0.0611172564 0.0178471591 0.2476348909
-0.1387872466 0.0254874915 0.2913547114
-0.1187955838 0.0228014479 0.2778971424
0.0336188911 -0.0148732507 0.1691127589
0.0017823546 -0.0539506614 -0.0632581362
0.0044905013 -0.0527891566 -0.0971635314
0.0234970795 -0.0500903113 -0.0394019351
0.0248365393 -0.0490763812 -0.0204173400
-0.0110632080 -0.0541279984 -0.0523509080
-0.0196040254 -0.0537765809 -0.0686960298
-0.0113384287 -0.0541497030 -0.0161319401
-0.0166163667 -0.0498932529 -0.1008116157
0.0341161570 -0.0376109408 0.0080557141
0.0446698346 -0.0387683637 -0.0331484917
0.0562965165 -0.0360766213 -0.0191434577
0.0475783513 -0.0362894189 -0.0007576270
0.0309781553 0.0119076118 0.1115418128
0.0333439239 0.0054200959 -0.2157321712
0.0662223967 -0.0330855673 0.0022273770
0.0349047258 -0.0411622806 -0.0981076099
0.0614532951 -0.0364066952 -0.0801806879
0.0442491630 -0.0392407841 -0.0803141112
0.0713736371 -0.0356432905 -0.0618229282
0.0425166843 -0.0396119033 -0.0785279651
0.0080133141 -0.0541545539 -0.0074771477
-0.0351437898 -0.0501661882 -0.0457502524
0.0590295741 -0.0219697745 -0.0878756079
0.0882452075 -0.0332149723 -0.0484453798
0.0451745577 -0.0401753769 -0.0568294669
0.0746909169 -0.0352321513 -0.0589322866
0.0553550847 -0.0385800807 -0.0525862842
0.0660934750 -0.0167478093 -0.0687920124
0.0517073074 -0.0175557478 -0.0758669545
-0.0540379185 -0.0184752839 -0.0316423577
-0.0925448177 -0.0179081737 -0.0022110453
-0.0821705840 -0.0179843058 -0.0113669212
-0.0625590016 -0.0189944087 -0.0148136093
-0.0465914520 -0.0419500250 -0.0297599118
-0.0607139381 -0.0306901504 0.0114311227
-0.0891596892 -0.0346809474 -0.0603487896
-0.0667659365 -0.0375685538 -0.0773498547
-0.0699324704 -0.0378644869 -0.0601615400
-0.0510042223 -0.0402543622 -0.0755994450
-0.0807324030 -0.0354168030 -0.0741114116
-0.0432998053 0.0103791577 0.0984829738
0.0346378427 0.0048906804 -0.0454641522
0.0744994504 -0.0251518587 -0.0823943099
0.0896753763 -0.0209947592 -0.0695938290
0.0708547341 -0.0361051879 -0.0420787616
0.0890967847 -0.0324095959 -0.0264899298
0.0721639961 -0.0340198843 -0.0245792958
0.0523478745 -0.0319504527 -0.0968994984
0.1019394980 -0.0312088904 -0.0376921536
0.0620596094 -0.0175314269 -0.0271926579
0.0651980926 -0.0172841362 -0.0280117780
0.0433408766 -0.0186312416 -0.0283098829
0.0503038299 -0.0172796928 -0.0429764036
0.0668909083 -0.0183228075 -0.0096969688
0.0468572215 -0.0195513698 -0.0100687051
0.0855760123 -0.0177839598 0.0003639036
0.0838460602 -0.0153914243 -0.0544414834
0.0908781607 -0.0140183224 -0.0373583097
0.0857419146 -0.0141990968 -0.0375011366
0.0679112453 -0.0155218524 -0.0484270524
-0.0626850084 -0.0169292915 -0.0623265237
-0.0705178914 -0.0174935164 -0.0795656307
-0.1044024236 -0.0155343327 -0.0617223197
-0.0660861914 -0.0178286151 -0.0835557338
-0.0807835076 -0.0164838169 -0.0319607809
-0.1063518787 -0.0160937734 -0.0099025928
-0.0780772564 -0.0163700369 -0.0356909900
-0.0646597422 -0.0169550615 -0.0438435967
-0.0961260246 -0.0153228802 -0.0270660708
-0.0624999836 -0.0274273283 -0.0980340943
-0.0756433799 -0.0339764726 -0.0050864147
-0.0616570549 -0.0379975350 -0.0344533666
-0.0516755577 -0.0403033567 -0.0463903518
-0.0563145155 -0.0369221722 -0.0038923824
-0.0782619328 -0.0335753444 -0.0052151633
-0.0791729709 -0.0276091748 0.0126267333
-0.0634308384 -0.0274752684 0.0175109948
-0.0498750366 -0.0382970347 -0.0982797011
-0.0948748671 -0.0341312773 -0.0437771221
-0.1052975449 -0.0321263164 -0.0562681133
-0.0446602041 0.0080239017 -0.1773713207
0.0792784540 -0.0319280327 -0.0102270432
0.0639194324 -0.0259197713 0.0184824500
0.0662181473 -0.0258861914 0.0179201377
0.0843510924 -0.0162782987 -0.0187111110
0.0876450352 -0.0161059573 -0.0169683131
0.1080524225 -0.0128739409 -0.0316874266
0.1266944416 -0.0116925825 -0.0282155426
0.1069167034 -0.0140831019 -0.0489604322
0.2196039355 -0.0028821155 0.0329381241
0.2001617216 -0.0044768245 0.0238764255
0.1829899015 -0.0063947753 0.0082292914
0.1573596819 -0.0091317416 -0.0132390461
0.2441758634 -0.0005026689 0.0498516103
0.1393172337 -0.0101555735 -0.0148059146
0.1664961208 -0.0076754159 0.0016254763
0.1100715033 -0.0139547355 -0.0494464469
-0.1004409677 -0.0144987469 -0.0435814375
-0.0836794152 -0.0159885179 -0.0575475170
-0.0811198056 -0.0158163920 -0.0536845883
-0.1643945187 -0.0103796378 0.0169601993
-0.1260750221 -0.0130440019 -0.0112809396
-0.1462508648 -0.0129742309 0.0155853097
-0.2300873589 -0.0046200771 0.0546486058
-0.1294125382 -0.0123438418 -0.0130338833
-0.1156189291 -0.0129580647 -0.0263031200
-0.1138675838 -0.0130937510 -0.0274686208
-0.0755637884 -0.0371041752 -0.0444593157
-0.1110287930 -0.0316723834 -0.0344107488
0.1018483926 -0.0293096371 -0.0100330004
0.1238851436 -0.0123913514 -0.0044247854
0.1047302434 -0.0158237184 0.0003616000
0.1418909524 -0.0104259066 0.0024244317
0.1764211778 -0.0077257157 0.0251797468
0.1529304144 -0.0107466172 0.0203545267
0.1104779689 -0.0130531822 -0.0167391045
0.3041971782 0.0042698319 0.0904535342
0.1583670723 -0.0081617040 0.0040688612
0.2564810103 0.0002372722 0.0616773777
0.2959965884 0.0036771611 0.0727375202
-0.1172361487 -0.0140928037 -0.0481796716
-0.3106266159 0.0042483577 0.0791460013
-0.1414909961 -0.0114502034 -0.0270754693
-0.2250906071 -0.0040557557 0.0199515208
-0.1751782891 -0.0079763923 -0.0007117183
-0.1627420827 -0.0091983207 -0.0095368540
-0.1426738288 -0.0113304582 -0.0261832055
-0.1465178925 -0.0105231722 -0.0061094675
-0.1844041707 -0.0077893026 0.0209158858
-0.2028226813 -0.0063400138 0.0329721165
-0.2453066173 -0.0032734162 0.0632684522
-0.0790421123 -0.0346869395 -0.0249412913
-0.1250587246 -0.0208337268 0.0247054377
-0.1242072034 -0.0213509195 0.0231730189
-0.0980287345 -0.0317008267 -0.0175918207
-0.0786729596 -0.0348595236 -0.0267798219
0.1151128279 -0.0294183394 -0.0233260574
0.2054103009 -0.0050674559 0.0407613869
0.2221193863 -0.0033631413 0.0481935725
-0.2892003509 0.0022615182 0.0710522985
-0.3495871822 0.0070181941 0.1125158315
-0.2343044619 -0.0024244492 0.0386260323
-0.2845115280 0.0018010947 0.0691587432
-0.2591530162 -0.0005875309 0.0574406035
-0.0920663478 -0.0238159645 -0.0776230461
-0.0921708255 -0.0232368229 -0.0769811381
-0.1627681312 -0.0175149113 0.0370471442
-0.1153929704 -0.0287185239 -0.0062807949
0.0343553363 -0.0031466191 -0.2475172873
0.2552942205 -0.0049496562 0.0346117507
0.1777952135 -0.0129607427 -0.0145242851
0.2010106069 -0.0111668256 -0.0004145218
0.1305638312 -0.0201017552 -0.0467414893
0.1534577084 -0.0185104358 0.0343948070
0.1373132406 -0.0200489606 0.0287777278
0.1184537683 -0.0256810729 0.0096906073
0.3423340023 0.0058741782 0.1170512073
0.3171714266 0.0039325374 0.0765391482
0.3343773156 0.0067584585 0.0893413643
0.2848974952 0.0017970974 0.0576823760
0.2860154472 0.0022553142 0.0589615909
0.1967702692 -0.0110719316 0.0592515463
-0.2131795161 -0.0054596227 0.0066280550
-0.2594252928 -0.0011239424 0.0355780586
-0.3441236934 0.0069361532 0.0914885574
-0.0803220618 -0.0282579203 -0.0880362458
-0.2180726264 -0.0102025761 0.0620831661
-0.0451831625 0.0050452232 -0.2115298692
0.2022600576 -0.0121432143 0.0006280509
0.2305848764 -0.0087131986 0.0192746638
0.1441397981 -0.0210677713 -0.0350824368
0.1586644697 -0.0189137695 -0.0260549422
0.2547321844 -0.0053069481 0.0345192440
0.2405873065 -0.0088634791 0.0684715208
0.2551234646 -0.0040421579 0.0845969589
0.2937642503 0.0001254014 0.0991490178
-0.0467520086 0.0028302053 0.1300384545
-0.2447954240 -0.0031092500 0.0250865250
-0.3516314792 0.0061229860 0.0910320226
-0.2018168444 -0.0137924019 0.0506372592
-0.0475335524 0.0020590883 -0.1559882890
0.3373734323 0.0043486905 0.0899657493
0.2688901874 -0.0060150902 0.0476431399
0.3183793142 0.0020639423 0.0769371412
0.1892605778 -0.0156260788 0.0453596821
0.1347150875 -0.0243228840 0.0092491802
0.1492795828 -0.0243459523 -0.0054979534
0.2123065070 -0.0146946855 0.0141086103
0.1421595671 -0.0253850369 -0.0100300144
0.2343717932 -0.0116958159 0.0381696428
0.1923475601 -0.0179037293 0.0148127245
0.1835305952 -0.0189297588 -0.0025985965
0.2374330264 -0.0111179742 0.0341852724
0.1653976323 -0.0217191012 -0.0076666949
0.1320678639 -0.0266903717 -0.0240314002
0.2677925742 -0.0065696030 0.0481809641
0.2114090507 -0.0148832092 0.0161419906
0.2802553648 -0.0024232178 0.0898670675
0.3127298540 0.0017087531 0.1041712194
-0.3292176657 0.0031966070 0.1104127421
-0.3145114297 0.0013933675 0.1038776592
-0.1335341701 -0.0150836923 -0.0462327946
-0.2891242659 -0.0004077954 0.0509985317
-0.2910991796 0.0003808527 0.0528384663
-0.1868502479 -0.0143561207 -0.0172402649
-0.3276206246 0.0033884594 0.0752217209
-0.1682584384 -0.0156478512 -0.0283941171
-0.1701460844 -0.0161119084 -0.0278602281
-0.2970468951 -0.0010831720 0.0945811985
0.1867866079 -0.0162300325 0.0428424235
0.2960762500 -0.0025653729 0.0723224986
0.2780971811 -0.0049207749 0.0722009650
-0.2700484569 -0.0072967680 0.0660670091
-0.2512698718 -0.0109926118 0.0472509278
-0.3125625724 -0.0019001337 0.0800683391
-0.1883383504 -0.0147595767 -0.0167581670
-0.2634603282 -0.0063340817 0.0336030551
-0.3071367768 -0.0006882493 0.0618730649
-0.1539319429 -0.0244934766 -0.0318797682
-0.2438281009 -0.0097530785 0.0220875257
-0.2201605064 -0.0120980292 0.0058023692
-0.2036816596 -0.0140280062 -0.0051343847
-0.2571375149 -0.0057704394 0.0777967708
-0.1332986697 -0.0261974849 0.0024592688
-0.1398861416 -0.0257742315 0.0011419790
-0.1312693650 -0.0282095500 -0.0140607922
-0.2730864436 -0.0075475798 0.0472674435
-0.2013381764 -0.0182210071 0.0107715376
-0.1690870789 -0.0231110623 -0.0014555961
-0.1359267019 -0.0277555288 -0.0313821486
-0.1557100418 -0.0249452278 -0.0153127266
-0.1532421531 -0.0253802981 -0.0134931175
-0.1898083156 -0.0198602611 0.0014691724
0.2579851547 -0.0074225273 0.0653487503
-0.3284800717 0.0004947845 0.0906842072
-0.3144312710 0.0004748027 0.0998440457
-0.2805395954 -0.0033714910 0.0863037876
-0.1558399646 -0.0235843934 0.0084287629
-0.2134929096 -0.0165343851 0.0224856711
0.2022400845 -0.0158927773 0.0325380786
0.1744454202 -0.0204071875 0.0135548520
-0.1923135302 -0.0176545571 0.0333922610
-0.2204455321 -0.0141613022 0.0429204621
-0.1267898516 -0.0268670590 -0.0797322687
-0.0027569795 0.1036372197 0.3015626861
-0.0052379731 0.1321529350 0.3177002366
-0.0058549921 0.1687870026 0.3205353286
-0.0085976609 0.1428135500 0.3052473613
-0.0092677508 0.1082074702 0.2885887789
-0.0011060000 0.0426579826 0.2494755847
-0.0104250005 0.0447982755 0.2637809877
-0.0076855893 0.0663085622 0.2523024480
-0.0088118080 0.0633943662 0.2513553135
0.0098852244 0.0259819888 0.2450530622
-0.0046927463 -0.0331695794 0.2074965684
-0.0225164839 -0.0268276415 0.2147767227
-0.0064336526 -0.0377122070 0.1886645199
-0.0097164176 0.0397268008 0.2352535600
0.0071756723 -0.0338317463 0.1932271800
0.0213572165 -0.0269446938 0.1841274802
0.0183934020 -0.0179557916 0.2256087487
-0.0313529150 -0.0297871852 0.1782166677
-0.0044711664 -0.0480210245 0.1295871412
-0.0033416341 -0.0430310984 0.1611191929
0.0041552685 -0.0442022968 0.1419107792
0.0192829039 -0.0353047911 0.1499155379
-0.0373233536 -0.0190279387 0.1934078669
-0.0131944811 -0.0445513536 0.1433779722
0.0225190007 0.0168089844 0.2181751162
0.0074388622 -0.0510491547 0.0912959999
-0.0427661597 -0.0003015912 0.1912124435
-0.0287889850 -0.0392633529 0.1343648885
-0.0170331665 -0.0472232784 0.1197355230
-0.0224243758 -0.0498455344 0.0940652603
0.0178242133 -0.0396133706 0.1289795558
0.0259162690 0.0145762970 0.1981679930
-0.0404520099 0.0067664008 0.2068573054
-0.0248309196 -0.0392679443 0.1562740270
-0.0314812862 -0.0396822733 0.1167624868
0.0239470080 -0.0367735383 0.1136468333
-0.0329791175 -0.0408488182 0.1009968144
0.0004943459 -0.0531282483 0.0620812989
0.0023859691 -0.0526965897 0.0628065438
-0.0402152629 -0.0233659108 0.1660053200
0.0031926420 -0.0525129538 -0.0450562698
0.0057169020 -0.0519368100 0.0080574902
0.0111415710 -0.0506983416 0.0301679999
0.0206702542 -0.0440322001 0.0131787650
0.0257019039 -0.0395473245 0.0323780516
-0.0348028823 -0.0414497519 0.0644059728
-0.0381375230 -0.0384308193 0.0843164433
-0.0174626054 -0.0518877678 -0.0362046773
-0.0355456062 -0.0409911297 0.0354780308
-0.0081799088 -0.0540069760 0.0023084571
-0.0260216209 -0.0490246424 0.0565129390
-0.0264276124 -0.0487002633 -0.0070395547
-0.0253181116 -0.0495858558 0.0764467343
0.0045098599 -0.0539159556 -0.0643434998
0.0195163959 -0.0450138285 -0.0746635733
-0.0358177730 -0.0412101795 -0.0637656372
-0.0153221930 -0.0532735108 -0.0844200400
0.0036177183 -0.0533617453 -0.0816631138
0.0223786829 -0.0427312310 -0.1474954395
0.0131652538 -0.0500786947 -0.1374242935
0.0021196292 -0.0527569746 -0.1734063302
0.0270168677 -0.0477899521 -0.0028738778
0.0266903229 -0.0392928132 -0.1230252247
-0.0331545169 -0.0433341199 -0.0938548803
-0.0053118897 -0.0544532551 -0.1161889945
0.0083241057 -0.0512000622 -0.1979159525
-0.0136449089 -0.0541486749 -0.0179439198
-0.0360275353 -0.0410426584 -0.1240228516
-0.0126410610 -0.0529883171 -0.1632649773
-0.0174356306 -0.0518936714 -0.1792636696
0.0202349240 -0.0431542478 -0.2189162217
-0.0320606098 -0.0432361349 -0.2092129120
-0.0372652366 -0.0492811932 -0.0768068098
0.0204548235 -0.0504929302 -0.0923107042
-0.0020675612 -0.0531463072 -0.2112911319
0.0364130750 -0.0403803665 -0.0968692572
-0.0320706407 -0.0508775407 -0.0280264249
-0.0330648423 -0.0417862666 -0.2320326572
-0.0334485352 -0.0414070087 -0.2343716710
0.0145282313 -0.0424732893 -0.2798018662
-0.0428806396 -0.0344490062 -0.1109001232
-0.0203550907 -0.0504162651 -0.2485267753
-0.0211378874 -0.0461866908 -0.2837285353
0.0023806742 -0.0448215324 -0.2983704664
-0.0048272819 -0.0487329340 -0.2832762802
0.0834372397 -0.0341559308 0.0039335586
-0.0182740846 -0.0435368455 -0.3002403644
0.0824754353 -0.0288959299 0.0274076248
-0.0161210227 -0.0364736026 -0.3214739773
0.0799384407 -0.0280235089 0.0309944929
0.1674303330 -0.0230625802 0.0344742111
0.1655500813 -0.0184811460 0.0534170935
0.2201608222 -0.0178570427 0.0506022534
-0.0049963715 0.1621380296 0.3021695167
-0.0057280652 0.0880208548 0.2418297940
-0.0060661457 0.1178496046 0.2669487115
-0.0084218392 0.0858455332 0.2647558506
-0.0061464660 0.0525475619 0.2180709284
-0.0049267258 0.0482268214 0.2187550393
-0.0023289096 0.0340303756 0.1813576061
-0.0067694935 0.0351193820 0.1805777927
-0.0122873048 0.0314121998 0.2161738175
0.0060121477 0.0311288774 0.2028593928
0.0149290519 0.0272838279 0.1905311828
-0.0001049203 0.0341643926 0.1342475540
-0.0046627870 0.0351088271 0.1614948909
0.0018280167 0.0337216111 0.1346781592
-0.0035418717 0.0350128703 0.1161322434
-0.0212549283 0.0307007544 0.1938332432
0.0236401972 0.0182434677 0.2017850673
0.0139450058 0.0296121442 0.1721170869
-0.0136093922 0.0336145613 0.1489382847
-0.0072901600 0.0352388902 0.0974609293
0.0095619808 0.0317737528 0.0998498209
-0.0221262601 0.0300473544 0.1988130195
-0.0179589618 0.0326163960 0.1310911299
-0.0185162184 0.0324430707 0.1112961814
0.0131753278 0.0305693856 0.1196264435
0.0181611673 0.0265870241 0.1212228678
0.0172424584 0.0271910111 0.1559372549
0.0179119453 0.0267215615 0.1385438291
0.0077775053 0.0322041068 -0.0074526415
0.0107367780 0.0314577850 -0.0218216150
0.0067910259 0.0324528947 0.0639976566
-0.0266619491 0.0287117835 0.1715766281
0.0023757447 -0.0526990358 0.0460127020
0.0143827888 -0.0490766143 0.0768378883
0.0208045526 -0.0421796553 0.0960509168
0.0229824162 -0.0408199008 0.0926711129
-0.0060848567 -0.0544844524 0.0220339204
-0.0278420377 0.0279648957 0.1477617976
-0.0217104256 0.0315988889 0.0876584625
-0.0078913479 0.0350842158 0.0811812549
-0.0146178692 0.0333877114 0.0315235140
-0.0100010099 0.0345521353 0.0627902644
0.0145046188 0.0296265862 0.0099382229
0.0249579757 0.0212903119 -0.1461338212
0.0227436880 0.0230561475 -0.1219518136
0.0214576233 0.0240817499 -0.0855689064
0.0210491260 0.0244075157 -0.0988424141
0.0156748324 0.0286933720 -0.0446596902
0.0151866071 0.0290827186 0.0456475778
0.0138751539 0.0301285678 -0.0433631473
0.0080335029 -0.0514077633 -0.0273600760
0.0098484277 -0.0509935882 0.0299758070
0.0195763620 -0.0447487669 0.0495235228
0.0180065629 -0.0460586529 0.0575334674
0.0321693586 -0.0247204921 0.1064426673
0.0293747810 -0.0273842186 0.1272105048
0.0249126235 -0.0402463044 0.0300920744
0.0319500864 0.0063957675 0.1818004626
-0.0455380448 -0.0024598949 0.1724494226
-0.0370106113 0.0182138093 0.1856512285
-0.0388995678 -0.0288683057 0.1446799442
-0.0332667263 -0.0429839185 0.0328462222
-0.0188688906 -0.0515667026 -0.0678165235
-0.0217129694 -0.0509175282 0.0247406610
-0.0353797007 0.0219101042 0.1596634784
-0.0086480831 0.0348933586 0.0055878572
-0.0066731851 0.0353914501 -0.0741804907
-0.0087477175 0.0348682297 -0.0102545229
-0.0162138335 0.0329851913 -0.0283910233
-0.0201400154 0.0319949640 -0.0475783063
-0.0220526266 0.0315125820 -0.0666190780
-0.0183810471 0.0324385956 -0.0274666117
-0.0252946934 0.0302189562 -0.0468457785
-0.0248329789 0.0305872104 0.0687840452
-0.0248967824 0.0305363220 -0.0095005830
-0.0271842947 0.0287118480 0.0201486441
-0.0245595780 0.0308052695 0.0503392233
-0.0360516732 0.0216394046 0.0722215207
-0.0246942424 0.0306978638 0.0176486955
-0.0250731342 0.0303956674 -0.0655017513
0.0241639510 0.0218695699 0.1025585586
0.0133088155 0.0305802076 -0.0666308308
-0.0018942800 0.0346433091 -0.0373608777
-0.0052994796 0.0355020927 0.0437700623
0.0004497357 0.0340521536 -0.0544513585
0.0006754322 0.0339952335 0.0211038993
-0.0022873910 0.0347424508 -0.0547167260
0.0114495610 0.0312780227 -0.0687254794
0.0259892401 0.0204679060 -0.1413521894
0.0153268574 0.0289708728 0.0446714839
0.0149686721 0.0292565160 0.0850711824
0.0251975913 0.0210992248 0.0604357481
0.0180378152 0.0268089560 0.0264247093
0.0269203831 0.0197253442 -0.1216876995
0.0256068312 0.0207728669 -0.0224925527
0.0231564770 0.0227269592 -0.0065449418
0.0272388455 0.0194713789 -0.0551218148
0.0188100567 -0.0455773405 -0.0540626499
0.0315099819 -0.0203262754 0.1501186585
0.0321338403 -0.0194072437 0.1490168498
-0.0391976156 -0.0375168718 0.0835016037
-0.0280565319 -0.0474014272 0.0094094953
-0.0187633561 -0.0515906110 0.0408537496
-0.0333745028 0.0236385491 0.1249501619
-0.0361320398 0.0215701869 0.0893953568
-0.0327475223 0.0242041161 0.1071720040
-0.0163809691 0.0328792234 -0.0898428945
-0.0152346263 0.0331661518 -0.0903654683
-0.0080654191 0.0347135127 -0.1525327992
-0.0113222054 0.0339757410 -0.1325981572
-0.0335505464 0.0236342532 0.0056961771
-0.0357917398 0.0218467222 0.0400427819
-0.0249635158 0.0304830968 -0.1227209610
0.0140389838 0.0299979178 -0.1736733158
0.0233511864 0.0225716837 -0.1639809531
0.0076594096 0.0321820294 -0.0869934655
-0.0047697140 0.0352181070 -0.1104781889
0.0279516426 0.0187729185 0.0779633479
0.0284307086 0.0177780417 -0.0394596621
0.0289717821 0.0166543940 0.0204682657
0.0241651836 -0.0413065444 -0.0788869645
0.0354984212 -0.0120989577 0.1174911553
0.0360146488 -0.0169081262 0.0941666672
-0.0469936965 -0.0204200698 0.0889146976
-0.0445334226 -0.0231291213 0.1050261987
-0.0447398536 -0.0257407351 0.0718548250
-0.0469115111 -0.0214840087 0.0308715902
-0.0436206948 -0.0285240543 0.0468459149
-0.0469350931 -0.0214294158 0.0310813239
-0.0442779112 -0.0278625503 -0.0213709199
-0.0423231445 -0.0316825774 0.0159140848
0.0261892875 0.0199580866 0.1707956358
-0.0206750348 0.0317702433 -0.1083201656
-0.0227571007 0.0312950123 -0.1545845453
-0.0120018023 0.0337499067 -0.1720591648
-0.0144564450 0.0331896350 -0.1341704995
-0.0280181455 0.0280464967 -0.1701868481
-0.0340392808 0.0232443338 -0.0294538018
-0.0320575423 0.0248248568 -0.0784959742
0.0282425390 0.0171306246 0.1325833921
0.0172803226 0.0270240281 -0.1924175604
0.0242565440 0.0202675277 -0.2268665132
0.0027593543 0.0332269648 -0.1634232789
0.0116408695 0.0311998697 -0.1475988051
0.0064380850 0.0323873404 -0.1271153240
0.0093349827 0.0317261596 -0.1105972183
0.0310771500 0.0122824974 -0.1020593320
0.0299018625 0.0147232685 -0.1783456593
0.0085841253 -0.0512816085 -0.1171154984
0.0160903329 -0.0477460222 -0.1676628747
0.0022347961 -0.0527306892 -0.1555488574
0.0309884159 -0.0314649752 -0.0142874778
0.0301409774 -0.0333641972 -0.0360973360
0.0322553622 -0.0289780364 -0.0368182283
0.0291966619 -0.0355029355 -0.0639049635
0.0209286543 -0.0438875901 -0.1083533453
0.0325703480 -0.0274883827 0.0446669347
0.0306148080 -0.0316079779 0.0592081672
0.0289832682 -0.0349633096 0.0777332295
0.0361208638 -0.0194238797 0.0640244643
0.0332984927 -0.0261028109 0.0276456472
0.0352365176 -0.0221480007 0.0032293358
0.0361509994 -0.0126059794 0.0483158055
0.0361509994 -0.0182139750 0.0782991571
0.0361509994 -0.0029981463 0.0743739320
0.0314584122 -0.0304694396 -0.0112478017
0.0284249639 -0.0362195442 0.0745289857
-0.0448627624 -0.0193510771 0.1303623561
-0.0443061963 -0.0212786530 0.1206180826
-0.0467441935 -0.0222522086 -0.0004122713
-0.0413067243 -0.0335668753 0.0508408136
-0.0476850010 -0.0057954803 0.0787205126
-0.0476850010 -0.0136874663 0.0565322172
-0.0476850010 -0.0066379727 0.0607280748
-0.0409938130 -0.0344432554 0.0156411456
-0.0379769748 -0.0391308601 -0.0033881570
-0.0247174830 -0.0500633281 -0.1468618461
-0.0272254330 -0.0480630377 -0.1133859413
-0.0079098350 -0.0540683334 -0.1361433532
-0.0375947431 0.0202165404 0.1400602795
-0.0220005167 0.0313143709 -0.1867070842
-0.0058682337 0.0335199625 -0.2398756687
-0.0153591943 0.0322264862 -0.2084471418
-0.0390152774 0.0192756815 -0.0562122460
-0.0345612584 0.0228279762 -0.1042628726
-0.0372803506 0.0206593692 -0.1251078158
-0.0380663256 0.0200325163 0.0395713453
-0.0349086782 0.0225508922 -0.1058371429
-0.0385695650 0.0196311586 -0.1230516431
-0.0322887649 0.0246403992 -0.1452472667
0.0296654193 0.0139846846 0.1473366836
0.0193499690 0.0247559399 -0.2102467083
0.0292539973 0.0149796143 -0.1986108374
0.0029325289 0.0327012528 -0.1986911108
0.0310973877 0.0122410331 -0.1803515220
0.0348208894 -0.0238921292 -0.0862893731
0.0359435584 -0.0214770160 -0.0660498784
0.0357397443 -0.0014518462 0.1066232031
0.0361509994 -0.0108881109 0.0301570989
-0.0471549680 -0.0055369533 0.1119047486
-0.0474789403 -0.0060411253 0.0972971046
-0.0476850010 -0.0037728569 0.0301602076
-0.0476850010 -0.0036781919 -0.0036037829
-0.0476850010 -0.0064400418 -0.0195991287
-0.0476850010 -0.0133842780 0.0157065599
-0.0476850010 -0.0105520993 0.0151835685
-0.0437514442 -0.0291963267 -0.0590861411
-0.0422058729 -0.0322814251 -0.0397672188
-0.0316452191 -0.0445379054 -0.1637237416
-0.0127535120 -0.0529631086 -0.1376401847
-0.0122514776 -0.0530772551 -0.1623894208
0.0328079447 0.0074526831 0.1629546978
-0.0111680551 0.0324115427 -0.2362256037
-0.0028026342 0.0340557611 -0.1970477882
0.0023383993 0.0323778207 -0.2152068158
-0.0291982374 0.0264305208 -0.2007005468
-0.0391485395 0.0191693987 -0.1656545140
0.0105289605 0.0299286561 -0.2360748373
0.0045450913 0.0317644288 -0.2191553533
0.0291426339 0.0163009910 0.0378603605
0.0273360041 -0.0380211211 -0.2030933451
0.0272317205 -0.0381524946 -0.2016959886
0.0194764108 -0.0438423263 -0.2180542993
0.0319771867 -0.0297986011 -0.1120196128
0.0361509994 -0.0053503971 -0.0274962784
0.0361509994 -0.0068771698 -0.0064167652
0.0361509994 -0.0067837651 0.0128584118
0.0347022477 -0.0019014954 0.1534649575
-0.0462219582 0.0037437397 0.1540031655
-0.0476850010 -0.0209121116 -0.0750197478
-0.0476850010 -0.0026837991 -0.0372275766
-0.0443966908 -0.0279560952 -0.0875108384
-0.0416090381 0.0139228987 0.1167994372
-0.0438787157 0.0086812234 0.1496685975
-0.0258633634 0.0283706594 -0.2214320200
-0.0406559665 0.0163370960 -0.0161788343
-0.0377171112 0.0201683416 -0.1853118200
-0.0353816800 0.0210627059 -0.2132811165
0.0294779470 0.0156040952 0.0390673088
-0.0030351336 -0.0531880017 -0.2152028358
-0.0090084822 -0.0536281521 -0.1964955729
0.0349803484 0.0041434880 0.0889763302
-0.0476850010 -0.0163056729 -0.0528085313
-0.0254182362 -0.0492001175 -0.1942144681
-0.0134872012 0.0283447128 -0.2595515244
-0.0127036063 0.0274367617 -0.2633145878
-0.0265391091 0.0271524614 -0.2410410492
0.0019327366 0.0237326827 -0.2759594747
0.0108795286 0.0278534574 -0.2548743677
0.0294845574 -0.0349752754 -0.1623562437
0.0049152591 -0.0513969480 -0.2352189109
0.0156176623 -0.0443667042 -0.2627857084
0.0155256531 -0.0468368866 -0.2485799657
0.0361509994 -0.0113656921 -0.0790028499
0.0361509994 -0.0202422580 -0.1527472023
0.0361509994 -0.0102885445 -0.1701330588
0.0361509994 -0.0176859748 -0.1728225079
0.0361509994 -0.0155891707 -0.1535765180
0.0361509994 -0.0174034141 -0.1186254192
0.0361509994 -0.0007272169 -0.0620635816
0.0361509994 -0.0016528827 -0.1093832912
0.0361509994 -0.0074068890 -0.1362355417
0.0361509994 -0.0151438284 -0.1005813118
0.0335123323 -0.0266096544 -0.1362132932
0.0350805639 -0.0085791966 0.1363659894
-0.0476850010 -0.0196063440 -0.1054287807
-0.0476850010 -0.0150113601 -0.1095467241
-0.0476850010 -0.0059156258 -0.0717883781
-0.0476850010 -0.0105206358 -0.0884239173
-0.0476850010 -0.0114166443 -0.1258600113
-0.0243196360 -0.0497382333 -0.2208906621
-0.0203344544 0.0217901856 -0.2818521694
-0.0200771754 0.0215370211 -0.2830408614
-0.0444009174 0.0085618344 -0.1376199599
-0.0435260961 0.0103783267 -0.0765286134
-0.0417785951 0.0140071724 -0.0182494454
0.0309930592 0.0090909282 -0.2351321919
0.0359232872 -0.0015345153 -0.1896060501
0.0353608860 0.0002773131 -0.2104017873
0.0284119658 0.0178170691 0.0753609902
0.0297754542 -0.0343710047 -0.1617796893
0.0330282209 -0.0272188288 -0.1901090239
-0.0420661762 -0.0327960163 -0.1689001039
0.0314908058 -0.0290674090 -0.2200064520
-0.0127338972 -0.0520170823 -0.2336621360
0.0339201922 -0.0257621891 -0.1326218802
0.0326910532 0.0085383116 0.0908609668
-0.0476850010 -0.0155743990 -0.1630216562
-0.0476850010 -0.0109332157 -0.1453720958
-0.0476850010 -0.0143048438 -0.1650345645
-0.0440312608 -0.0287157585 -0.1326882885
-0.0418336260 -0.0299040251 -0.2445823657
-0.0351075899 -0.0327749288 -0.2794785831
-0.0328881881 -0.0401755626 -0.2573902361
-0.0051503053 0.0195402435 -0.2948342978
0.0162297450 0.0201900898 -0.2683564080
-0.0453528018 0.0065857245 -0.1363121330
-0.0425990653 0.0123045917 -0.0351025208
-0.0410903897 0.0154359839 0.0229279120
-0.0427226034 0.0120466259 0.0011770906
-0.0421733927 0.0131867199 0.0181334872
-0.0473819949 -0.0065430852 -0.1923714634
-0.0473504268 -0.0064838099 -0.1935367989
0.0346293209 -0.0190127131 -0.2374526436
0.0355359734 -0.0166602570 -0.2039276317
0.0350818527 -0.0122802020 -0.2207195157
0.0336907786 0.0068569249 -0.1603677052
-0.0430351342 -0.0305770170 -0.1858622339
-0.0441227692 -0.0282907144 -0.1864903720
-0.0002062410 -0.0515276118 -0.2511930910
0.0361509994 -0.0119469490 -0.0505429173
-0.0462599385 -0.0135624162 0.1522610558
-0.0401620906 -0.0367493100 -0.1468777848
-0.0423258554 -0.0307586238 -0.2141105017
-0.0434639937 -0.0224355307 -0.2613980771
-0.0299911400 -0.0327743136 -0.3012650341
-0.0299747143 0.0202326545 -0.2620902851
-0.0469345668 -0.0175278908 -0.2088882545
-0.0463280112 -0.0195539678 -0.2312792309
-0.0465058111 -0.0055278431 -0.2247157549
0.0222525363 -0.0313154098 -0.2920943451
0.0258307250 -0.0317146632 -0.2691517648
-0.0386761727 -0.0172404533 -0.2884481166
-0.0436491921 -0.0220559913 -0.2607895182
-0.0420657703 0.0103106031 -0.2308900693
0.0345639013 0.0050452358 -0.1595385299
0.0075860351 -0.0436401382 -0.2995185089
0.0184091980 -0.0286676145 -0.3074878009
-0.0121254320 -0.0495955206 -0.2677041455
-0.0439643730 -0.0288547405 -0.1514338512
-0.0419061181 -0.0078992012 -0.2704854297
-0.0376869265 -0.0183637319 -0.2935971502
-0.0300444705 -0.0228425841 -0.3152069717
-0.0467452151 0.0036964314 -0.0540977584
0.0277701831 0.0117832322 -0.2559753422
-0.0417881761 0.0128648530 -0.1991474933
0.0353771051 0.0008514255 0.1230005857
-0.0300413137 -0.0218364250 -0.3162129229
-0.0390151332 0.0153770487 -0.2488891930
-0.0459480642 -0.0054711967 -0.2452992828
0.0341857581 0.0058302060 -0.0185529934
0.0032018600 -0.0388731202 -0.3161952753
0.0288433375 -0.0138358083 -0.2789991965
0.0284556447 -0.0175552112 -0.2811552294
0.0232764134 -0.0118458152 -0.3030950179
-0.0466882960 -0.0032546503 0.1329397980
-0.0352987656 -0.0013684387 -0.2981282084
-0.0468108747 0.0035593718 -0.1122656565
-0.0136651214 -0.0380254564 -0.3192087511
0.0108836030 -0.0256832848 -0.3276865802
0.0314280668 -0.0043175749 -0.2646250291
0.0323733024 -0.0170813653 -0.2593683954
0.0227249703 -0.0100794691 -0.3049145770
-0.0389151914 0.0089084773 -0.2646766233
-0.0278421539 -0.0048779690 -0.3151244753
-0.0199153493 -0.0182208237 -0.3360781029
0.0263171448 0.0059829401 -0.2768323644
0.0315990485 0.0111988995 -0.0694135926
-0.0444526041 0.0084549105 0.0765990629
-0.0189044699 -0.0154404971 -0.3377153813
-0.0090174880 -0.0311733636 -0.3355207796
0.0108400830 -0.0241331133 -0.3288897797
0.0360794855 0.0018937468 0.0552621182
-0.0165505869 -0.0020806422 -0.3282379192
0.0346288087 0.0049079930 -0.1251317214
0.0109015004 -0.0031971913 -0.3233543266
-0.0030959373 0.0039060030 -0.3199018281
0.0322843402 0.0097768377 -0.0873417609
0.0342624748 0.0056709533 0.0051678338
-0.0008284098 -0.0041492377 -0.3374606178
0.0350395686 0.0040578197 0.0542353508
-0.0076848995 -0.0113839151 -0.3499678143
-0.0463180502 0.0045820094 0.0427236248
-0.0417246178 0.0141183409 0.0594442312
0.1186110112 -0.0300217294 -0.0438562990
-0.1410680133 -0.0334100543 -0.0730498517
0.1311166700 -0.0364576553 -0.0526852262
-0.1420330896 -0.0346959822 -0.0667860659
0.1068289136 -0.0320696175 -0.0555794662
0.1014279110 -0.0379025818 -0.0732071363
-0.1219466223 -0.0295855108 -0.0615774956
-0.0459498313 -0.0074415493 -0.2452338936
-0.0385290748 0.0165967373 -0.2478044128
-0.0138953548 0.0244039524 0.2963712441
-0.0160074075 0.0031504260 0.2979491331
-0.0059571255 0.1478663104 0.2887362885
-0.0057829241 0.1475907242 0.2868875802
0.0217336118 0.0216460037 -0.2451679000
-0.0445874860 0.0081748469 -0.0955492217
0.0346102861 0.0049479390 -0.1407378086
0.0089798255 0.0290726762 0.2257947879
-0.0394016728 -0.0273393428 0.1472039596
-0.0333962614 -0.0357425080 -0.2805027228
-0.0963279977 -0.0331804816 -0.0005630505
-0.0903357486 -0.0259403148 0.0257329533
0.1186710000 -0.0277898271 -0.0053596161
-0.1781809321 -0.0163108687 0.0586936486
-0.0936511567 -0.0260788181 0.0292551436
-0.2348062313 -0.0181377372 0.0488658445
-0.1264860034 -0.0238438848 -0.0614774719
-0.1765950025 -0.0243869541 0.0114668816
0.1168109998 -0.0221134134 -0.0643672715
0.1147195232 -0.0303593446 -0.0909296464
0.1297949485 -0.0341587380 -0.0846067949
0.1335025570 -0.0495769623 -0.0894525677
-0.1324339846 -0.0633504513 -0.0587283467
0.1158729985 -0.0622202942 -0.0903358867
-0.0139386076 -0.0270137329 0.1702599972
-0.0418846945 -0.0203980122 0.1679809380
-0.0039946686 -0.0118875798 0.1702599972
-0.0245125522 -0.0082204477 0.1702599972
-0.0227729559 -0.0069995655 0.1702599972
-0.0233826771 0.0301416976 0.1702599972
0.0136080054 -0.0227186287 0.1702599972
0.0141244693 -0.0057572137 0.1702599972
0.0197257940 -0.0025711665 0.1702599972
0.0003138556 0.0252445283 -0.1811860055
0.0117410884 0.0128043389 0.1702599972
-0.0335061623 0.0089352663 0.1702599972
-0.0057248383 0.0069930688 0.1702599972
-0.0088201329 0.0119185902 0.1702599972
0.0210700187 -0.0397132944 -0.1811860055
0.0204860554 -0.0398941273 -0.1811860055
-0.0180145874 0.0105271155 -0.1811860055
-0.0381877478 0.0044455471 -0.1811860055
-0.0313492723 -0.0433353374 -0.1811860055
-0.0045597477 0.0023573589 -0.1811860055
0.0128035976 0.0122738409 -0.1811860055
0.0203456143 -0.0027391175 -0.1811860055
-0.0112710576 -0.0359203776 -0.1811860055
-0.0254807353 -0.0277898918 -0.1811860055
0.0277482604 -0.0367512146 -0.2348756560
-0.0047837908 -0.0147390198 -0.1811860055
-0.0391992695 -0.0141608778 -0.1811860055
-0.0236777140 -0.0073421883 -0.1811860055
0.0025866240 -0.0295684237 -0.1811860055
0.0197680314 -0.0225822736 -0.1811860055
-0.0004715520 -0.0419141924 -0.2484840006
-0.0021444432 0.0181085830 -0.2484840006
-0.0134116511 -0.0288430465 -0.2484840006
-0.0179867069 -0.0282623098 -0.2484840006
0.0209256021 -0.0244009182 -0.2484840006
0.0048999874 0.0010413527 -0.2484840006
-0.0190509506 0.0103027251 -0.2484840006
-0.0214375885 0.0102348067 -0.2484840006
0.0190618110 -0.0073915108 -0.2484840006
-0.0131069762 -0.0064286965 -0.2484840006
-0.0139234002 -0.0105394257 -0.2484840006
-0.0310101167 -0.0162524828 -0.2484840006
0.0043397893 -0.0195234012 -0.2484840006
0.0015873335 -0.0199567646 -0.2484840006
0.0016173840 -0.0217670835 -0.3439453480
0.0755104056 0.0165862421 0.2557317958
0.0769194950 0.0171648263 0.2547359338
-0.0923022402 0.0177489474 0.2568576472
0.1073576106 0.0224614637 0.2771753568
-0.1048789991 0.0204082744 0.2673638258
-0.1456683818 0.0250960449 0.2930568573
-0.0557719599 0.0138801391 0.2340251944
-0.0448896930 0.0075474422 -0.0960731900
0.0154116577 0.0163277321 -0.2870391865
-0.0463224409 0.0045728045 -0.1185316670
-0.0244822809 0.0145777467 -0.2971077525
-0.0362704089 0.0066286226 -0.2830604767
0.0130072157 0.0088612433 -0.3047176326
0.0236774133 0.0031821398 -0.2945172183
-0.0351473256 0.0094195236 -0.2819734291
-0.0167265811 0.0070711661 -0.3114403266
0.0078908360 0.0115672280 -0.3056908204
-0.1754460994 -0.0168884741 0.0610079895
-0.1730353977 -0.0238957244 0.0293163032
0.1663739732 -0.0157451889 0.0561351285
0.1616270354 -0.0251827787 0.0199473380
0.2222574939 -0.0108363107 0.0830865288
-0.2308751779 -0.0099080289 0.0724935168
-0.2344927009 -0.0085197774 0.0776348136
0.0947716881 -0.0223615092 0.0178208682
-0.0705733709 -0.0196540399 0.0022557843
0.0993409270 -0.0213361532 0.0170969054
0.1370727670 -0.0161620021 0.0304452110
0.1209110847 -0.0178775522 0.0231325424
-0.1050508094 -0.0218361274 0.0157445479
-0.1183197745 -0.0168756462 0.0087745168
-0.1406180003 -0.0186664826 0.0321099811
-0.1463511320 -0.0175217984 0.0329959384
-0.1998967789 -0.0100670401 0.0515865793
-0.1786371640 -0.0106662278 0.0366870190
0.3283582234 0.0057137454 0.1103995242
0.1724901661 -0.0104289657 0.0401893736
0.2143014788 -0.0076801810 0.0644943256
0.3100864327 0.0032258746 0.1053445033
-0.3507920593 0.0069988660 0.1144380096
-0.2761709231 -0.0022027301 0.0868460553
-0.2604737330 -0.0041434097 0.0806175013
-0.3310912200 0.0038415949 0.1110141974
0.2780861858 -0.0004206663 0.0918010658
0.2356643114 -0.0039772811 0.0695884548
0.2549563147 -0.0035572184 0.0835053797
0.3422034964 0.0069620921 0.1175066624
-0.1370392979 -0.0314102673 -0.0516762405
0.1304586257 -0.0386140052 -0.0361754696
-0.1433011342 -0.0399234571 -0.0395691189
0.1022274162 -0.0367041360 -0.0703730932
-0.1229512055 -0.0310099566 -0.0421147720
-0.1410434958 -0.0358006714 -0.0914786068
-0.1411025500 -0.0368254428 -0.0920459648
-0.1157608946 -0.0347676314 -0.0864243514
0.1000353670 -0.0458981258 -0.0886570061
-0.1453426222 -0.0520397574 -0.0693869806
-0.1423455778 -0.0563509608 -0.0879011908
0.1019736658 -0.0483619300 -0.0916898550
-0.1123865082 -0.0418206919 -0.0488705031
0.1004006227 -0.0486248556 -0.0494076553
0.1022448799 -0.0557303738 -0.0698436362
0.1229403671 -0.0606194002 -0.0354542648
0.1243610685 -0.0624559932 -0.0686400834
-0.1148839082 -0.0573791313 -0.0826927927
-0.1153769958 -0.0581148486 -0.0613464932
0.1110309346 -0.0627374475 -0.0857256195
-0.1283585939 -0.0627537627 -0.0446055966
0.1293149031 -0.0449129246 -0.0220524111
-0.1383234646 -0.0480238731 -0.0076837289
0.1070958870 -0.0488741802 -0.0101547597
-0.1194375760 -0.0486907698 -0.0049463911
-0.1219694788 -0.0572588862 -0.0239264387
0.1261407257 -0.0427341575 -0.0062968153
0.1071558137 -0.0459687185 -0.0056649571
-0.1185574446 -0.0394455869 -0.0198860373
-0.1375728446 -0.0497503863 -0.0059096895
0.1191487298 -0.0573501497 -0.0167095104
-0.1220514133 -0.0563934413 -0.0197460091
-0.1443083109 -0.0529061967 -0.0496674315
0.1304845374 -0.0568471724 -0.0522879760
0.1061647254 -0.0568689450 -0.0322770611
-0.1372452093 -0.0584415794 -0.0326777687
0.1039262569 -0.0582456788 -0.0705565690
0.1099952436 -0.0625076992 -0.0557509361
0.1345906111 -0.0442873544 -0.0679304810
-0.1141562022 -0.0527614343 -0.0385392346
0.1273363970 -0.0604713791 -0.0701882485
-0.1281863413 -0.0640617490 -0.0775065158
-0.0047026805 0.1280327370 0.2814410669
-0.1291110241 -0.0499252298 -0.0805448699
-0.1148198654 -0.0443558834 -0.0696353389
0.1301437658 -0.0415661171 -0.0688304602
0.1169979029 -0.0473103178 -0.0834050772
