-0.0075245401 0.0615288334 0.2825174545
-0.0084084326 0.0719809238 0.2830617735
-0.0051209047 0.0618457006 0.3163289554
0.0022768932 0.0677798926 0.3038800524
0.0022417319 0.0557825287 0.3043018321
0.0057142695 0.0677840190 0.2758405187
-0.0088363100 0.0610097965 0.2498531877
-0.0047376269 0.0692771738 0.3240919717
0.0031524405 0.0561873307 0.2883064196
-0.0080340646 0.0811395921 0.2752451935
0.0011832160 0.0572290152 0.3219493310
0.0043924790 0.0740049131 0.2623097135
0.0057013269 0.0698006621 0.2736615312
-0.0062575205 0.0649215465 0.2361652951
-0.0017107272 0.1320985857 0.3648312872
-0.0050000247 0.0686499820 0.2368945773
-0.0061780321 0.0956697970 0.2735268707
-0.0023228730 0.1463016588 0.3700299501
0.0029265777 0.0925565815 0.2707764212
-0.0017563149 0.0608797348 0.2110370685
-0.0031609827 0.1278532334 0.3585074893
0.0003495991 0.1357909608 0.3031474515
0.0042836966 0.0602562775 0.2332364492
-0.0035605518 0.0925582348 0.2581571289
-0.0045164026 0.1241214993 0.2951917903
-0.0054992078 0.1529997496 0.3412117305
-0.0006309478 0.0964827311 0.2607089875
0.0040287899 0.0564974961 0.2214679630
-0.0036898069 0.1439990798 0.3119723150
0.0006541231 0.0968708232 0.3407825638
-0.0053147242 0.1455333985 0.3396759732
-0.0000830826 0.1463908762 0.3645081185
-0.0036483179 0.1404884930 0.3584893883
-0.0054595821 0.1373354572 0.3175181635
-0.0020307236 0.1801027584 0.3642778466
-0.0038530018 0.1587203180 0.3570738208
0.0010263227 0.1501846333 0.3231290787
-0.0001736433 0.1690939356 0.3718480711
0.0009574495 0.1253903655 0.3391508904
-0.0043566041 0.1257679269 0.3388896208
0.0014095050 0.1516541901 0.3278398864
0.0013863827 0.1683101415 0.3506033090
0.0025379255 0.1361202765 0.3303703598
0.0013438352 0.1531345359 0.3470710794
-0.0042675633 0.1034044230 0.3398976908
0.0008305349 0.0760412840 0.3068309059
0.0008279209 0.0963010428 0.3196137363
-0.0010691005 0.1468903822 0.3515324158
-0.0076955583 0.0854950528 0.2946201744
0.0020756415 0.0742583342 0.3100681997
0.0015147534 0.1040020027 0.3242176666
-0.0069227567 0.0891138182 0.3021443800
0.0047281795 0.0944216256 0.2951772149
0.0030211105 0.1073180249 0.2892336245
0.0011637383 0.0959060312 0.3339011131
-0.0076033901 0.1022156234 0.3027350669
0.0037395895 0.1119067334 0.3104657733
-0.0042695792 0.0930356437 0.3369344470
0.0027571611 0.0873928141 0.3070669451
0.1241701823 0.0343628117 0.3701593825
0.0855083730 0.0307537958 0.3518535691
0.0640948102 0.0307870281 0.3359713574
0.1225141075 0.0336567503 0.3698126868
0.0660442815 0.0306281447 0.3388276232
0.0223165769 0.0295712277 0.3137753029
0.1255521737 0.0349472892 0.3622438165
0.1082165033 0.0338885602 0.3526810514
0.0845166788 0.0301154104 0.3263295042
0.0763125331 0.0322748202 0.3310211804
0.0704816528 0.0290534675 0.3189981873
0.0456354168 0.0307749681 0.3209056438
0.0527461142 0.0280740523 0.3080635771
0.0367704645 0.0271532482 0.2904332097
0.0920129886 0.0339625406 0.3278017891
0.0213241257 0.0272260215 0.3054412539
0.0898390578 0.0339626868 0.3216559163
0.0347014770 0.0302307092 0.3055625294
0.1152432042 0.0346359269 0.3312055497
0.0743805121 0.0332230607 0.3068051196
0.0178275970 0.0304761389 0.2766269998
0.0345628455 0.0315043349 0.2804199964
0.0999059137 0.0311613915 0.3289718206
0.1059088099 0.0338420573 0.3484163441
0.1055882248 0.0319563060 0.3508890034
0.0767097260 0.0320211667 0.3341575107
0.0499838011 0.0274359120 0.2881474744
0.0952648269 0.0334200136 0.3404469055
0.0508617383 0.0277131148 0.2980614103
0.0491371863 0.0275232919 0.2933190958
0.1095393160 0.0347487330 0.3318890822
0.0292938432 0.0271453351 0.2966316214
0.0299501890 0.0258907895 0.2631859593
0.0221408920 0.0297614184 0.2959490443
0.0485600385 0.0309299222 0.2735002723
0.0412635854 0.0307652957 0.2677815284
0.0346258567 0.0313233341 0.2888959476
0.0232255403 0.0307578830 0.2632539769
-0.1102715358 0.0334809903 0.3572138102
-0.0589371719 0.0291859029 0.3362692019
-0.1147374874 0.0331514322 0.3651603772
-0.0731635635 0.0295360219 0.3400149380
-0.0581221438 0.0291391921 0.3355945193
-0.1236127550 0.0326906460 0.3500405187
-0.1214750217 0.0328794916 0.3551427584
-0.1021210511 0.0312546819 0.3365666966
-0.0882272437 0.0300245240 0.3188348354
-0.0737653733 0.0288911563 0.3071371477
-0.0354023171 0.0300162254 0.3170180206
-0.0639117284 0.0289787224 0.3313103016
-0.0399605518 0.0280860054 0.3201935056
-0.0996110698 0.0340522776 0.3315306774
-0.0330377629 0.0266655543 0.2866628346
-0.0551185697 0.0313582734 0.3116133558
-0.0204380222 0.0257330456 0.2844905735
-0.0862011612 0.0336350160 0.3160683465
-0.0775128469 0.0332676464 0.3103629005
-0.0235776475 0.0307170329 0.2752438901
-0.0469217222 0.0317792338 0.2799654904
-0.1253398788 0.0347353949 0.3588998943
-0.1145859358 0.0340362941 0.3549006727
-0.0890938272 0.0301713830 0.3265434476
-0.0806283527 0.0317507279 0.3370847073
-0.0666393863 0.0284624817 0.3089957770
-0.1105508234 0.0345738398 0.3385474922
-0.0598513820 0.0283515892 0.3144866958
-0.0740158250 0.0292914102 0.3339932259
-0.0967334996 0.0339164210 0.3296671022
-0.0287490852 0.0254035283 0.2639960905
-0.0870735883 0.0336928787 0.3177723825
-0.0158493562 0.0279275509 0.3061194488
-0.1244429785 0.0350387269 0.3367988036
-0.0950674340 0.0336835229 0.3138615075
-0.0268458383 0.0304831847 0.2851947079
-0.0424666508 0.0315143842 0.2745546551
-0.0010305464 -0.0404267247 -0.2254541655
-0.0070165171 -0.0215978919 -0.2281156122
-0.0018760219 -0.0430656672 -0.2240299237
0.0043158803 -0.0414790241 -0.2205964988
0.0346698443 0.0116450240 -0.0634867806
0.0292289059 0.0410742953 0.1635766770
0.0337904515 0.0122677458 0.1694405449
0.0299424214 0.0400870225 0.0857234647
0.0343743215 0.0102737930 0.1227056708
-0.0338806105 0.0106160320 -0.0975940651
-0.0346160010 0.0143928634 0.0509435836
-0.0334717205 0.0104814641 -0.1290019659
-0.0336893064 0.0097042954 0.0085448902
0.0334603607 0.0060286614 -0.0621456578
0.0340836205 0.0287722251 -0.0548735881
0.0344323847 0.0271561394 0.0076400750
0.0349546397 0.0247357839 0.1066863284
0.0333223487 0.0053871341 -0.0863902692
0.0340259115 0.0290396540 0.0456783112
0.0331120306 0.0045095806 -0.0826447681
0.0351790003 0.0214015856 -0.0503580616
0.0286290844 0.0424251598 -0.0993097518
0.0271268308 0.0443570735 -0.0701519920
0.0246389757 0.0475575122 -0.0877892349
0.0330704271 0.0332677871 0.0035344527
0.0351790003 0.0199007378 0.0721235707
0.0333759252 0.0320522288 0.1509429394
0.0215657007 0.0505061394 -0.0823765455
0.0330682952 0.0044150166 0.1393965740
0.0208459991 0.0495783963 -0.1298531759
0.0263927963 0.0453015568 0.0118279681
0.0241729877 0.0481566724 0.0700752914
0.0332076015 0.0048542276 0.1123379198
0.0310940280 0.0375760351 -0.1025034895
0.0222120934 0.0499964836 -0.0209535323
0.0222599914 0.0499587179 0.0054436887
0.0231084816 0.0492897161 0.0862499509
0.0188707586 0.0504055363 -0.1430118033
0.0091247525 0.0576532836 -0.0671345483
0.0168349299 0.0542361697 -0.0248424811
0.0210882317 0.0508826053 0.0961841513
0.0176896259 0.0535622749 0.0106119855
0.0262072344 0.0455400693 0.0437201693
0.0318425125 0.0359429801 -0.0970666210
0.0165415039 0.0544407003 0.0806284922
0.0110695479 0.0568108909 0.0077492345
0.0145359899 0.0527687335 -0.1512903268
0.0266310969 0.0393414581 -0.1721256510
0.0157427179 0.0487573564 -0.1822072610
0.0278482323 0.0434295532 0.0323359917
0.0293243834 0.0414354398 -0.0291686732
0.0069563925 0.0577351903 -0.1093758005
0.0105881572 0.0570194064 0.0307297931
0.0136088989 0.0557109650 0.1278248844
0.0148287138 0.0494131980 -0.1810629498
0.0278900342 0.0365771962 -0.1764351965
0.0331679636 0.0249899240 0.1864777581
0.0000119192 0.0589790768 -0.0626600388
0.0055830015 0.0582756193 -0.0165247620
0.0081442345 0.0579163878 0.1333581197
0.0040751610 0.0566505330 -0.1384404585
0.0147815382 0.0528883598 0.2147551302
0.0252151649 0.0463038753 0.1689282313
0.0224573945 0.0348279802 -0.2128303926
0.0271287955 0.0443552635 0.1523504010
0.0350417992 0.0226413891 -0.1097307633
-0.0039811809 0.0571667830 -0.1269480186
0.0003013476 0.0590164094 0.0694119874
0.0076520042 0.0579854267 0.1522112106
0.0065856193 0.0579945907 0.1770659297
0.0165068259 0.0481178199 0.2493111443
0.0031860645 0.0548025267 0.2585841454
0.0276615651 0.0236024363 0.2280191575
0.0344229652 0.0108220501 0.1588336090
-0.0081348677 0.0578381897 -0.0967746929
-0.0012635923 0.0588005382 0.0585719997
-0.0036422242 0.0584675912 -0.0146016921
-0.0069215453 0.0575889201 -0.1107351052
0.0014915434 0.0571604700 0.2177653547
0.0111215185 0.0487826254 0.2824182747
0.0254280396 0.0291957628 -0.2147005498
0.0292692510 0.0290794959 0.2134012484
0.0342538715 0.0184438212 -0.1508740470
-0.0086090549 0.0552789865 -0.1473934675
-0.0041664003 0.0583942201 0.0604058030
-0.0035611939 0.0584789334 0.1181424283
-0.0021285115 0.0541846220 -0.1715418916
-0.0014866758 0.0552163516 0.2536869797
-0.0002172626 0.0519239162 0.2992987191
0.0270497093 0.0322907611 0.2257311552
0.0347943753 0.0148955690 -0.1226518696
-0.0093706502 0.0573029076 0.1015996854
-0.0102344155 0.0569287657 0.0224175503
-0.0098898506 0.0570780148 -0.0127338080
-0.0069453902 0.0579988890 0.1589270574
-0.0052213878 0.0547644463 0.2520008179
0.0153181091 0.0466832024 0.2680987253
-0.0007378523 0.0490306805 0.3282992821
0.0205223675 0.0309162337 0.2756369370
0.0345072530 0.0174507530 -0.1376451490
-0.0210777161 0.0500422408 -0.1098833152
-0.0143723879 0.0551363934 0.0611664003
-0.0144790856 0.0550901770 0.0758146946
-0.0119981302 0.0558610243 0.1840505982
-0.0086103096 0.0531941718 0.2524567772
0.0157061675 0.0426089516 0.2840490926
-0.0019889003 0.0464961924 0.3493365984
0.0213096567 0.0269891040 0.2717420762
0.0184046128 0.0390416254 0.2764142622
-0.0176371162 0.0531595942 0.0612090022
-0.0165329109 0.0540303425 0.0794194523
-0.0168621193 0.0537707371 -0.0144773746
-0.0156590280 0.0545126156 0.1638090978
-0.0104859713 0.0545169013 0.2189636621
0.0014880973 0.0435547978 -0.2227460709
0.0222353238 0.0420499698 0.2365771756
0.0257971124 0.0174517057 -0.2307563276
0.0240876878 0.0226528683 0.2539817137
0.0333357486 0.0060161052 0.1594185992
-0.0191883926 0.0519362970 0.0848336751
-0.0222390050 0.0495306614 0.0868902174
-0.0193198105 0.0518326641 0.0972506568
-0.0263630259 0.0442065403 -0.1092623796
-0.0140230467 0.0532302015 0.2121628879
-0.0048479944 0.0436695757 0.3485940186
0.0237298628 0.0216105318 -0.2342409479
0.0155111051 0.0313981826 0.3053098245
0.0306843510 0.0381847605 0.1608065062
0.0342641965 0.0140645863 -0.1503309716
-0.0192007346 0.0466676824 -0.1741090781
-0.0190167607 0.0510071479 0.1930988930
-0.0045156961 0.0408911555 -0.2294615080
0.0217570084 0.0117501457 -0.2466322023
0.0038988130 0.0351006774 0.3729459463
0.0295970614 0.0101689153 0.2022557973
-0.0146911263 0.0454883655 -0.2009363881
-0.0176716551 0.0451228597 0.2532875911
-0.0060675573 0.0421031049 0.3458851438
0.0113967289 0.0268828282 0.3294484177
0.0148692307 0.0183894170 0.2995118111
0.0331658669 0.0216286157 -0.1714179396
-0.0263444615 0.0415551532 -0.1532489699
-0.0020852673 0.0362104923 -0.2384589275
0.0096954439 0.0248164290 0.3378212483
0.0079362495 0.0079121872 0.2994269745
-0.0229440248 0.0486246213 0.1661972147
-0.0109363745 0.0373836856 -0.2317612099
-0.0034842124 0.0329731589 0.3721860920
0.0093714744 0.0132250486 0.3133609473
-0.0279119785 0.0426233660 0.0736035643
-0.0273067141 0.0434018394 -0.0508381185
-0.0267629267 0.0441012486 0.0525801429
-0.0235382687 0.0482487677 0.1396716264
-0.0096050806 0.0371351859 0.3339597345
-0.0062878151 0.0329775782 0.3573692278
0.0057077001 0.0157483757 0.3367675172
-0.0268198197 0.0440280916 0.1540106002
-0.0182174608 0.0355752629 0.2809236229
0.0304535610 0.0354099455 -0.1503786052
0.0289932841 0.0125298079 0.2093735020
-0.0263676564 0.0446097706 0.1278666119
-0.0200560387 0.0434432343 0.2426853230
-0.0143230690 0.0326208541 0.3083074882
-0.0122323804 0.0279473049 0.3219375041
0.0009862706 0.0235770133 0.3758878183
-0.0225793269 0.0343797953 0.2532639922
0.0108261560 0.0067319380 -0.2688695560
-0.0060889811 0.0089078916 0.3067286040
-0.0286297628 0.0337954540 0.2056865757
0.0282787167 0.0143827554 0.2165429259
-0.0092729534 0.0080195317 0.2935904278
-0.0324424041 0.0062488645 -0.1361968647
-0.0229979903 0.0308429177 -0.2192190363
-0.0215972568 0.0198973776 -0.2408018974
-0.0026937795 0.0185109763 0.3558680542
-0.0285045581 0.0053738480 0.1943316280
-0.0303978110 0.0054011377 -0.1869016443
-0.0330451514 0.0309724111 -0.0517410869
-0.0344986156 0.0242397464 0.0613745719
-0.0317764037 0.0348600098 -0.0284447598
-0.0266851233 0.0249888998 -0.2151401815
-0.0046240458 0.0140912018 -0.2672619252
-0.0043373353 0.0166836076 0.3444241553
-0.0326049359 0.0046745748 -0.0344196387
-0.0271362435 0.0130998083 -0.2230654550
-0.0338039927 0.0274573846 0.0826356698
-0.0327298003 0.0324322875 0.0507631504
-0.0160850466 0.0168490817 0.2884244542
0.0300018466 0.0399578933 0.0128442850
-0.0330181021 0.0080651354 0.1616320335
-0.0346160010 0.0197444879 -0.0227741333
-0.0329009251 0.0316408767 0.0293476873
-0.0341595546 0.0258101261 -0.0679339181
-0.0207650770 0.0130236386 0.2576128769
-0.0329144228 0.0061760705 -0.1018357565
-0.0329611260 0.0313616294 0.1210799382
-0.0332889328 0.0298457419 -0.0827999499
-0.0248195706 0.0089234679 0.2246475954
-0.0317945324 0.0348204432 -0.0529694856
-0.0289153875 0.0195962427 -0.2089627931
0.0339007305 0.0275507365 -0.1201554529
-0.0342960443 0.0193050130 -0.1192757966
-0.0282280665 0.0203849975 0.2198098842
-0.0346160010 0.0188256588 0.0725011201
0.0347626825 0.0120772352 0.1127275193
-0.0346160010 0.0205943559 -0.0662435024
-0.0329737474 0.0091669783 -0.1436534474
-0.0343972209 0.0188159844 -0.1140014301
-0.0336065558 0.0227267715 -0.1506081432
0.0328792309 0.0247762492 -0.1660699794
-0.0346160010 0.0164343705 0.0194217507
-0.0346160010 0.0155726807 0.1142139052
-0.0344759378 0.0133565461 -0.0827212971
-0.0335247576 0.0240007481 -0.1429105417
0.0315325260 0.0344225443 -0.1322032716
-0.0338318497 0.0103676052 -0.0281919498
-0.0328080418 0.0056171032 0.0259036230
0.0282286753 0.0327543054 -0.1919003521
-0.0303570314 0.0321194629 -0.1658533938
0.0297896722 -0.0027068877 0.0660593591
0.0293760181 -0.0036033698 0.1466572342
0.0272336960 -0.0064993193 0.0364093195
0.0273703934 -0.0061274397 -0.1223457516
0.0206803855 -0.0134906800 -0.0722864465
0.0244340657 -0.0101007613 0.0646914480
0.0200064366 -0.0140238039 -0.0351064551
0.0243920219 -0.0079163665 -0.1896463839
0.0126476328 -0.0184243416 -0.0669541875
0.0212725213 -0.0115480670 -0.1956775289
0.0122438364 -0.0185992469 -0.0407596845
0.0238008991 -0.0061306787 0.1822299878
0.0065931278 -0.0204266903 -0.0606070109
0.0252295634 -0.0051330078 -0.2058911478
0.0061583699 -0.0204469219 -0.1593813449
0.0028311829 -0.0209467212 -0.0935669064
0.0025325519 -0.0209880023 0.1550883924
-0.0047991778 -0.0198522113 -0.2013653623
0.0011993848 -0.0204292697 0.1627994882
-0.0036424726 -0.0207549782 -0.0903336471
-0.0053702901 -0.0205171319 0.1557846745
0.0092124277 -0.0097253252 0.2151619286
-0.0035498810 -0.0207665775 -0.1407470371
0.0083596255 -0.0128403499 0.2014648509
-0.0100454102 -0.0185143587 -0.1932250605
-0.0004805564 -0.0084549964 0.2318690521
-0.0221119979 -0.0118998234 -0.0917755796
-0.0130486107 -0.0177689333 -0.1651827210
-0.0140847131 -0.0145024220 0.1769048968
-0.0133163602 -0.0178438502 -0.1344101919
-0.0031719073 -0.0056367498 0.2449460245
-0.0167470767 -0.0110724501 -0.2368323336
-0.0209750540 -0.0128116671 0.1312542558
-0.0279104529 -0.0048852228 -0.0830382844
-0.0217206742 -0.0115349555 -0.1718708558
-0.0128711283 -0.0044969325 0.2311555678
-0.0283020297 -0.0043292902 -0.1076838134
-0.0207893256 -0.0037744369 -0.2415769911
-0.0272193675 -0.0057912731 0.1390018746
-0.0266463714 -0.0065163180 0.0262550918
-0.0168622403 -0.0030090103 -0.2576785550
-0.0263364049 -0.0069195006 0.0688820645
-0.0287245329 -0.0037735124 0.0307271834
-0.0288998848 -0.0034122367 0.1345531475
0.0316632248 0.0260868874 -0.1786001408
0.0253163116 0.0466859433 -0.0759390428
0.0262650532 -0.0077453806 0.0239935627
0.0292152737 -0.0039502194 0.0652324725
0.0236999796 -0.0110450891 -0.0396892170
0.0238839850 -0.0108083847 0.0660308448
0.0176010851 -0.0159265452 -0.0936588521
0.0204113712 -0.0129885688 -0.1731667807
0.0153724370 -0.0169523742 -0.1684749516
0.0207023148 -0.0134733329 0.1374414546
0.0093389037 -0.0196168011 -0.1653546796
0.0207274504 -0.0098475515 0.1787280948
0.0074721273 -0.0203046325 -0.1264586170
0.0057063359 -0.0205492353 -0.1041180747
0.0088798232 -0.0200563772 0.1169822597
0.0031052732 -0.0187899650 -0.2330296526
-0.0062111064 -0.0204011365 -0.0598758350
0.0338694959 0.0297657140 -0.1019917031
0.0127293195 -0.0103431212 0.2043363986
0.0241663497 0.0083210824 0.2291127000
-0.0076306778 -0.0202041814 -0.0795762764
0.0243709027 0.0120112999 0.2374666239
-0.0203493555 -0.0133026458 -0.0494138433
-0.0123103485 -0.0183265724 0.1455826944
-0.0205787558 -0.0131135153 -0.0778367365
0.0117972160 -0.0125266498 -0.2524363285
-0.0243021313 -0.0095387275 -0.0676645950
0.0163278979 -0.0099598884 -0.2469716663
-0.0271852066 -0.0058204890 -0.0904328901
-0.0161836484 -0.0165413957 -0.1137320597
-0.0260409042 -0.0072186099 -0.1093934975
0.0002697615 -0.0134835421 -0.2660864048
-0.0227493850 0.0060493228 0.2288793555
0.0325431822 0.0032748917 -0.0688894781
0.0328520951 0.0039460360 -0.0041843252
0.0301393349 -0.0019473619 0.0245650288
0.0298019672 -0.0018322530 -0.1385723456
0.0323850321 0.0029313174 0.1034001996
0.0304631180 -0.0012437031 0.1461573874
0.0316711963 0.0022024070 -0.1377134175
0.0309891971 0.0028762353 -0.1742058067
0.0246050390 -0.0009508699 0.1992334604
0.0146994722 0.0014583361 0.2523238723
0.0081241475 0.0020945866 0.2748977572
0.0019872873 0.0027456785 0.2869627860
-0.0049535153 0.0000317818 0.2717836586
-0.0307354669 0.0009355666 -0.1164007026
-0.0257968931 -0.0020188728 0.1864020417
-0.0273641848 -0.0024658038 -0.1873435876
-0.0292512462 -0.0026514344 0.1533625475
-0.0311537127 0.0025541541 -0.1470763931
-0.0301036876 -0.0007861577 0.0013118608
-0.0306533061 0.0032704134 -0.1729934764
-0.0308757436 0.0008770135 0.0366955429
-0.0280033959 0.0029439715 0.1907487722
-0.0322886192 0.0039454448 -0.0254407113
-0.0319447784 0.0031983146 0.0673081928
-0.0058803906 -0.0185179449 -0.2310729764
-0.0303383443 -0.0079763577 -0.0678828483
-0.0305147339 -0.0152202975 -0.0494578896
-0.0294999055 -0.0198433747 -0.0635661447
-0.0214163869 -0.0211289641 -0.0723279572
-0.0264382189 -0.0238277581 -0.0348933345
-0.0280694707 -0.0241366426 -0.0036509041
-0.0076436946 -0.0210412870 -0.0942932234
-0.0141307500 -0.0232630736 -0.0444363223
-0.0139318609 -0.0235732217 -0.0402861366
-0.0094297012 -0.0260919102 -0.0044117781
-0.0303399725 -0.0123909354 -0.0140516795
-0.0132339891 -0.0274151668 0.0144823240
-0.0238337700 -0.0105789759 -0.1231508945
-0.0016849243 -0.0254806308 -0.0257676210
-0.0144330479 -0.0272240670 0.0271412298
0.0000397333 -0.0229070542 -0.0754561180
-0.0302120798 -0.0063844575 -0.0172395207
-0.0085549997 -0.0269793574 0.0322738371
0.0007736819 -0.0223049232 -0.1006234948
-0.0301702573 -0.0046054514 0.0058902091
-0.0156216554 -0.0265822074 0.0379835371
-0.0168618807 -0.0254853905 0.0563335379
0.0044221668 -0.0239372629 -0.0374388652
-0.0299177892 -0.0207769071 0.0561883955
-0.0222235811 -0.0258885595 0.0487563862
-0.0033123595 -0.0251360832 0.0719069459
0.0059092158 -0.0217126960 -0.0658251667
0.0110118223 -0.0239002141 -0.0343811987
0.0053607142 -0.0269334535 0.0068379996
0.0082918766 -0.0267505533 0.0046073599
-0.0303284200 -0.0110693330 0.0424274124
-0.0094334086 -0.0237219615 0.0871889511
-0.0301050295 -0.0012607266 0.0283762759
0.0175734151 -0.0226009568 -0.0522091301
0.0083855870 -0.0246791435 -0.0243015870
0.0200438137 -0.0272432412 0.0258926577
0.0041551710 -0.0252687586 0.0665566828
-0.0267743230 -0.0176057675 0.1045463355
-0.0249248185 -0.0226962977 0.0924648656
-0.0040481484 -0.0196374778 0.1216856394
0.0296120626 -0.0206557647 -0.0305911090
0.0256476823 -0.0257864514 0.0500637059
0.0217265201 -0.0258000059 0.0504121032
0.0147285917 -0.0252085172 0.0614677743
0.0083301427 -0.0199974604 0.1155321506
-0.0231333971 -0.0123830360 0.1229692789
0.0104830264 -0.0197693761 -0.1092068211
0.0308536888 -0.0187014330 -0.0262261796
0.0291855659 -0.0224059800 0.0513848921
0.0161674253 -0.0229024225 0.0992090373
-0.0225385967 -0.0104973751 0.1251711798
0.0306730001 -0.0153505891 -0.0508289554
0.0309217068 -0.0191411086 -0.0086757722
0.0308362296 -0.0157433631 0.0820976417
-0.0289785285 -0.0049086889 0.0880409179
0.0302468114 -0.0072369074 -0.0740004083
0.0309004540 -0.0148639527 -0.0162531020
0.0308074695 -0.0086503478 0.0378720628
-0.0282613763 -0.0023908346 0.0905698092
0.0308339293 -0.0046896731 0.0039527145
0.0220084221 -0.0138797832 0.1263912612
0.0308047733 -0.0040783817 -0.0273343607
0.0166930034 -0.0128790578 -0.1254583106
0.0308069134 -0.0005903176 -0.0086807122
-0.0295688394 -0.0021831293 0.0646636055
-0.0742714692 -0.0164773336 0.0375736426
-0.0679113924 -0.0227584389 0.0174990642
-0.0742769990 -0.0154297140 0.0316690940
-0.0698294012 -0.0228814599 0.0622248845
-0.0690868747 -0.0186611073 0.0676164184
-0.1115312520 -0.0157263395 0.0272289384
-0.1140296398 -0.0125568118 0.0468972052
-0.1077689983 -0.0164580263 0.0364551491
-0.1538322667 -0.0075586919 0.0669739433
-0.1471650909 -0.0082514230 0.0799593299
-0.1515156841 -0.0104021500 0.0759117117
-0.1480407412 -0.0071929886 0.0455405622
-0.1852116924 -0.0004116610 0.0687110757
-0.1840885716 0.0051370266 0.0756789515
-0.1889175057 -0.0026952618 0.1100570001
-0.2166566250 0.0000710609 0.1059736734
-0.2203147759 0.0014798134 0.1202691543
-0.2200360635 0.0015148514 0.0868914333
-0.1375360710 -0.0054563621 -0.0083611953
-0.1377077842 -0.0041037523 -0.0292660394
-0.1326144642 -0.0002391750 -0.0263767871
-0.1331650247 -0.0064808797 -0.0364260100
-0.1353006454 -0.0143130003 -0.0026517557
-0.2250507878 0.0072456736 0.0194886441
-0.2243451690 0.0062588178 0.0749780288
-0.2264041100 0.0083869030 0.0851369308
-0.2290554176 0.0020247003 0.0500537082
-0.2239083457 -0.0012352675 0.0628620673
-0.0459548384 -0.0180377525 0.0378033971
-0.0486149810 -0.0186860533 0.0466089479
-0.0505811760 -0.0202011243 0.0571232945
-0.0552993291 -0.0186368837 0.0296354741
-0.1044452436 -0.0110010902 0.0703436429
-0.0763789754 -0.0154207877 0.0490574574
-0.1077950373 -0.0104131710 0.0686249087
-0.1277905028 -0.0071214238 0.0750679930
-0.1454818203 -0.0042482378 0.0806388342
-0.2138305233 0.0082918160 0.1025803667
-0.2208375152 0.0080960011 0.1131185364
-0.2445677247 0.0120864754 0.1182907191
-0.3274259434 0.0214683784 0.1598769793
-0.2490765865 0.0112557842 0.1281815458
-0.3207908901 0.0202225834 0.1511555007
-0.0420694836 -0.0170117527 0.0237064030
-0.0344889451 -0.0227894737 0.0466602127
-0.0454078188 -0.0208086311 0.0455870409
-0.0499356886 -0.0195357123 0.0278305813
-0.0825839458 -0.0147083625 0.0649612121
-0.1136542086 -0.0086613578 0.0690236316
-0.1490950919 -0.0036310611 0.0874708109
-0.1766840488 0.0032320654 0.0844084681
-0.1863073364 0.0034073811 0.0958389792
-0.2138732254 0.0077041056 0.1061031991
-0.2052755095 0.0050342629 0.1098530123
-0.2922052717 0.0177662123 0.1400175888
-0.3005091075 0.0185165975 0.1454691696
-0.2583077474 0.0123164970 0.1258605809
-0.0343138928 -0.0162499669 0.0090075020
-0.0670430801 -0.0081948608 0.0080656602
-0.0502311699 -0.0087926655 -0.0104726749
-0.0715083079 -0.0113580054 0.0305832725
-0.0471505052 -0.0078910151 -0.0203531358
-0.0809849305 -0.0100450144 0.0354756674
-0.1100029585 0.0010745220 0.0066773616
-0.0511711400 -0.0033011333 -0.0437487369
-0.1292689320 -0.0014434969 0.0491360580
-0.1104760575 -0.0011145334 0.0225586630
-0.0821216331 0.0005635320 -0.0375670016
-0.1104442283 0.0035494045 -0.0217157041
-0.1486856172 0.0035989918 0.0436231142
-0.0503910425 -0.0019720339 -0.0623026664
-0.1447321775 0.0068634703 -0.0034426703
-0.1608436458 0.0059790345 0.0430321441
-0.0353741406 -0.0029953956 -0.0906202125
-0.0709602558 0.0000549154 -0.0537459568
-0.1777211034 0.0052927864 0.0722329632
-0.1839517952 0.0103834871 0.0403287417
-0.1098011673 0.0017721747 -0.0405129078
-0.2032988209 0.0113431333 0.0637757333
-0.2068520887 0.0128452446 0.0352720208
-0.2279750392 0.0117496315 0.0985191980
-0.2300394825 0.0154649968 0.0603970793
-0.1957742135 0.0091480531 0.0198394549
-0.2412810969 0.0137750538 0.1022115691
-0.2442531407 0.0168259793 0.0760399672
-0.2453748224 0.0166158919 0.0594891981
-0.0697749869 -0.0033807402 -0.0684642845
-0.3232860123 0.0233870962 0.1435137463
-0.3130626893 0.0241019079 0.1182984336
-0.2936946494 0.0218438681 0.0974390908
-0.1396662773 0.0006258867 -0.0175325666
-0.2697695814 0.0155688635 0.0752004955
-0.3415149202 0.0241821061 0.1297669899
-0.1105200643 -0.0034068875 -0.0318102465
-0.1926193965 0.0064115779 0.0222297364
-0.3369741857 0.0259342679 0.1455165030
-0.0731944216 -0.0090408966 -0.0472779473
-0.1392435051 -0.0013532292 0.0011297285
-0.1662721259 0.0016192968 0.0281201443
-0.1846232280 0.0028937532 0.0637288186
-0.2224892209 0.0080240050 0.0894894687
-0.2579678577 0.0132939318 0.0790798724
-0.2886329011 0.0168231582 0.1054727398
-0.0275763863 -0.0137229978 -0.0756230128
-0.1066654299 -0.0081130594 0.0202400509
-0.1035375486 -0.0066054936 -0.0096778170
-0.1219784311 -0.0045615559 0.0090939079
-0.1676067055 0.0010429514 0.0452535318
-0.1512539686 -0.0018183225 0.0445462702
-0.2228190446 0.0076441984 0.1004691166
-0.2204224253 0.0077571925 0.0881168036
-0.2348231151 0.0097019820 0.0920646909
-0.3009028898 0.0179760004 0.1262736828
-0.2697618016 0.0138981229 0.1163961555
-0.3495876409 0.0273999174 0.1535886726
-0.0354122442 -0.0138547135 -0.0616763441
-0.0987446151 -0.0109333211 0.0394103158
-0.0837563563 -0.0105303459 -0.0023462579
-0.0317550935 -0.0174040982 -0.0330167335
-0.0627757356 -0.0123755063 -0.0291100480
-0.0654971424 -0.0107251322 -0.0435812852
-0.0653367032 -0.0161982465 0.0235078465
-0.0395851658 -0.0129179805 -0.0012549772
-0.0562292653 -0.0090001978 -0.0009242235
-0.0922023632 -0.0056803810 0.0257404858
-0.0517626042 -0.0058974680 -0.0255132178
-0.0861507245 -0.0023945368 -0.0029822783
-0.0810535172 -0.0105303511 0.0383445387
-0.0436496996 -0.0045811351 -0.0401450403
-0.0943337941 0.0009810570 -0.0177464863
-0.1230696788 0.0023299545 0.0157604907
-0.0416652239 -0.0041036988 -0.0502970567
-0.1202616795 0.0037595998 -0.0024883870
-0.1268268293 -0.0031710732 0.0563926633
-0.1443575695 0.0062448522 0.0141876573
-0.0998144750 0.0025075380 -0.0327419224
-0.1707235215 0.0045659920 0.0674581023
-0.1581014333 0.0078890178 0.0183160794
-0.0616395374 -0.0001691041 -0.0650363342
-0.1538042542 0.0074052408 -0.0073753561
-0.1863937756 0.0087429358 0.0597496848
-0.1819586164 0.0102688657 0.0159186098
-0.2049122669 0.0088399572 0.0861519725
-0.1943895760 0.0117679065 0.0385389144
-0.1250337410 0.0030143360 -0.0299057751
-0.1971460859 0.0092900798 0.0719309348
-0.0257263232 -0.0043517230 -0.1102638709
-0.2341222076 0.0126812303 0.1004904741
-0.2537486857 0.0169551738 0.0940050797
-0.2686275569 0.0193844045 0.0919050493
-0.2431927730 0.0155801682 0.0554292879
-0.2521736875 0.0149283569 0.0610383011
-0.2842788361 0.0208592722 0.1082202686
-0.2737744129 0.0198973985 0.0974195653
-0.0429159079 -0.0071514468 -0.0894989094
-0.1776243709 0.0044843570 0.0138238502
-0.2909416642 0.0179565566 0.0913659473
-0.1086747146 -0.0035463158 -0.0333731886
-0.1779217146 0.0039686730 0.0194905913
-0.2454396614 0.0121180073 0.0652811788
-0.0264674424 -0.0121269397 -0.0967860704
-0.1123404448 -0.0045266972 -0.0183656410
-0.1466600277 -0.0013853713 0.0231308632
-0.1607404677 0.0011879913 0.0185192512
-0.2085433049 0.0070672929 0.0533666926
-0.2035182225 0.0066596705 0.0425492377
-0.3113330278 0.0193831838 0.1272345385
-0.3490608704 0.0271153137 0.1452198627
-0.0911148038 -0.0085392052 -0.0114790449
-0.1021791316 -0.0064028757 -0.0159918754
-0.1390876244 -0.0048717763 0.0611187840
-0.1123229720 -0.0072021942 0.0213309877
-0.1796288714 0.0017256650 0.0718198311
-0.1540217232 -0.0022308949 0.0611068615
-0.2114444297 0.0068138546 0.0746841435
-0.2600779882 0.0129107327 0.1035126641
-0.2486624496 0.0113633742 0.1017274166
-0.2338539118 0.0091476985 0.1066965130
-0.2320593980 0.0098465809 0.0734825450
-0.0441074760 -0.0152991566 -0.0310800251
-0.0895586051 -0.0102097070 0.0079319418
-0.0778560759 -0.0136256943 0.0214032446
-0.0764831440 -0.0128995270 0.0090658781
-0.0338413223 -0.0195507361 -0.0088550448
-0.0657985561 -0.0126112402 -0.0196327352
-0.0632842415 -0.0162544235 0.0195675871
-0.3536628506 0.0247306299 0.1606281513
-0.0430725801 -0.0398690786 0.0087268567
-0.0444717862 -0.0428284749 -0.0031341550
-0.0560487069 -0.0375687292 -0.0019682427
-0.0521330569 -0.0406228579 0.0063661632
-0.0426669741 -0.0429762766 0.0042028405
-0.0462189642 -0.0151025142 -0.0009113612
-0.0474164675 -0.0180793541 0.0021371592
-0.0482590332 -0.0244805289 -0.0030153538
-0.0114707758 -0.0387926177 0.0390489995
-0.0098455889 -0.0343834545 0.0437264341
-0.0203901463 -0.0383199460 0.0428276559
-0.0195957851 -0.0361656887 0.0516832730
-0.0112901287 -0.0446067537 0.0529370468
-0.0122761267 -0.0374310648 0.0290663986
-0.0234778751 -0.0440132164 0.0275918465
-0.0237635579 -0.0422643310 0.0249394670
-0.0003381630 -0.0151424152 0.0413727283
-0.0157849112 -0.0376279034 0.0412913036
-0.0165681213 -0.0213914771 0.0337038834
-0.2245065514 0.0013272354 0.0536229277
-0.2366802196 -0.0169657839 0.0537156332
-0.2194654507 0.0023434278 0.0386044206
-0.2165345660 -0.0189144992 0.0496819107
-0.2199505052 -0.0119752825 0.0583867485
-0.2293879094 -0.0169575390 0.0568653383
-0.2370752148 -0.0001343007 0.0308645715
-0.2168798429 0.0009061721 0.0272506202
-0.2130090080 -0.0064588910 0.0387530037
-0.2121100378 -0.0160370627 0.0221580704
-0.2349121609 -0.0234190199 0.0250295250
-0.2228853904 -0.0240766559 0.0008801956
-0.2359127158 0.0012501663 0.0186205011
-0.2362346281 -0.0027214240 -0.0034711885
-0.2404057929 -0.0080053772 0.0392269247
-0.2122818111 -0.0052229269 0.0086392181
-0.2406660503 -0.0163813049 0.0133307349
-0.2374223859 -0.0200414382 0.0025507524
-0.2186614966 -0.0229318327 0.0048855228
-0.2240339517 -0.0253777112 0.0111581541
-0.2255082491 -0.0048573614 0.0491110012
-0.2247133524 -0.0058355175 0.0592868077
-0.2156874426 -0.0061430123 0.0049840002
-0.1424890985 -0.0089233706 -0.0298956101
-0.1232332509 -0.0282735670 -0.0262016326
-0.1462888847 -0.0119658848 -0.0297596473
-0.1427342850 -0.0340552787 -0.0288171587
-0.1298964727 -0.0264799206 -0.0159529673
-0.1360863763 -0.0075539198 -0.0710596584
-0.1315458184 -0.0072831846 -0.0405153709
-0.1497073645 -0.0177147638 -0.0680096089
-0.1235847486 -0.0204925342 -0.0222479048
-0.1486171115 -0.0295653953 -0.0465749301
-0.1247980718 -0.0316819400 -0.0660854311
-0.1324785593 -0.0366155038 -0.0455134311
-0.1325456831 -0.0069928543 -0.0605524927
-0.1285145704 -0.0084482758 -0.0413369465
-0.1472697753 -0.0184565399 -0.0712208923
-0.1449113500 -0.0219762682 -0.0219500009
-0.1494038847 -0.0280397139 -0.0471943539
-0.1230362401 -0.0300570819 -0.0421172650
-0.1394600311 -0.0336468149 -0.0251348556
-0.1361969690 -0.0095284315 -0.0684271464
-0.1251579419 -0.0177226061 -0.0219500009
-0.1325650782 -0.0206567046 -0.0043480243
-0.1343666650 -0.0103918973 -0.0660770014
0.0734116686 -0.0173539771 0.0054307840
0.0695633499 -0.0216405589 0.0702241178
0.0733460370 -0.0142734549 0.0045638964
0.0691169633 -0.0224350321 0.0112542763
0.1139301747 -0.0118748550 0.0384817405
0.1090446387 -0.0161882460 0.0304077943
0.1136329984 -0.0143604506 0.0435757841
0.1069079716 -0.0152088636 0.0547793574
0.1536276772 -0.0048674205 0.0509355108
0.1468272184 -0.0090259476 0.0634605243
0.1535145943 -0.0049246507 0.0492317731
0.1460295094 -0.0038650176 0.0598437926
0.1855016187 0.0049880059 0.0589311730
0.1902643556 0.0001084756 0.1049706643
0.1843639008 0.0014193228 0.0956618887
0.2219751699 0.0072017291 0.0856854350
0.2164915503 0.0037581370 0.1183376614
0.2188027519 0.0073979700 0.0720368036
0.1370379929 -0.0067763826 0.0001938875
0.1376339839 -0.0070609930 -0.0150305725
0.1329249004 -0.0033210576 -0.0028530756
0.1331069134 -0.0089635250 0.0017446555
0.1363539994 -0.0059315454 -0.0590543847
0.2287760118 0.0048787350 0.0523352715
0.2245938092 0.0076522878 0.0866045513
0.2256946847 0.0092870978 0.0670095178
0.2233969813 0.0043598406 0.0546903523
0.2253919338 0.0011170695 0.0919054074
0.0424530855 -0.0192987607 0.0418786049
0.0347423430 -0.0226960959 0.0460873047
0.0321286722 -0.0229674570 0.0389649826
0.0393594957 -0.0211653541 0.0198813332
0.0997174996 -0.0095023363 0.0576816737
0.1184927023 -0.0069877272 0.0666019352
0.1215956490 -0.0078494434 0.0749529347
0.1650682870 0.0015384630 0.0794688559
0.1899217436 0.0041284748 0.0966732876
0.1915323459 0.0051161434 0.0929713069
0.2229894192 0.0082065454 0.1156314552
0.2715068539 0.0151324646 0.1318570463
0.3033088340 0.0190916719 0.1453372396
0.2992855935 0.0176681999 0.1475335050
0.0427624018 -0.0174994872 0.0288151283
0.0371237816 -0.0177222761 0.0212666734
0.0448628876 -0.0208678567 0.0453755059
0.0757459553 -0.0139176490 0.0520966343
0.0441319701 -0.0205237424 0.0277522751
0.0769713811 -0.0152611341 0.0481039780
0.1122250167 -0.0058985169 0.0534596663
0.1440891749 -0.0024910941 0.0750276246
0.1651619208 0.0003426434 0.0860758059
0.1857120000 0.0031822429 0.0966119231
0.1973364285 0.0043161881 0.1051312858
0.2036684516 0.0047973600 0.1062074790
0.3015792406 0.0192595347 0.1421161919
0.3305990123 0.0219613412 0.1608021075
0.2737926992 0.0144079991 0.1369148467
0.0295557567 -0.0164797260 0.0047006217
0.0656474736 -0.0121300188 0.0274738500
0.0692427043 -0.0047136103 -0.0099708472
0.0317973589 -0.0116621115 -0.0170271275
0.0801276431 -0.0025414281 -0.0096184373
0.0992264081 -0.0076405945 0.0462006355
0.0951143343 -0.0020284809 0.0070614113
0.0751010811 -0.0013556883 -0.0247787937
0.1188531149 -0.0028242732 0.0441237342
0.0508692456 -0.0025858955 -0.0532066463
0.0901599635 0.0010067306 -0.0272324178
0.1415162786 -0.0004873848 0.0602083004
0.1231267325 -0.0001666331 0.0341401066
0.0285835700 -0.0037703946 -0.0766856300
0.1616646541 0.0037963026 0.0605778172
0.1580325842 0.0053623198 0.0439676604
0.0256168684 -0.0040268864 -0.0993687066
0.1137712162 0.0036483060 -0.0338510202
0.1818257043 0.0055327460 0.0767191257
0.1530920081 0.0070005809 0.0238327841
0.1271917928 0.0043390481 -0.0269562031
0.1935682607 0.0093722263 0.0659673403
0.2119156429 0.0131333252 0.0339695412
0.2268501462 0.0112174246 0.1010745309
0.2249919517 0.0147174749 0.0484105901
0.2349479510 0.0133806117 0.0966642722
0.2666745413 0.0171418188 0.1123933614
0.3044969978 0.0232422279 0.1118383165
0.2395925818 0.0160119758 0.0551177576
0.1174974982 -0.0003569504 -0.0352057852
0.2990024677 0.0213174896 0.1257556600
0.3187535388 0.0247229827 0.1225071041
0.2880380516 0.0213741726 0.0949670171
0.1462815274 0.0010445764 -0.0096718429
0.2998625184 0.0190116611 0.0979159127
0.0273443520 -0.0107131665 -0.1083592447
0.1131052677 -0.0037452652 -0.0245089791
0.2644355195 0.0145069536 0.0773787650
0.3440201057 0.0249909320 0.1325069869
0.1345760196 -0.0035694813 0.0288048075
0.1408616508 -0.0012109763 0.0037162237
0.1906334288 0.0038085743 0.0640911754
0.1833228725 0.0030549689 0.0558147049
0.2216527293 0.0085415828 0.0681270082
0.3330266632 0.0220135850 0.1412879270
0.2467801693 0.0120280580 0.0695700826
0.1094041003 -0.0095072034 0.0479733252
0.1065538296 -0.0057852078 -0.0139800703
0.1239515771 -0.0068709570 0.0491843127
0.1154429622 -0.0058832020 0.0109985630
0.1739116983 0.0004443575 0.0773114859
0.1673718476 -0.0006026584 0.0752453937
0.1943126576 0.0046952536 0.0574341490
0.1910053383 0.0032838728 0.0780510271
0.2548758327 0.0119049463 0.1140954795
0.2694098902 0.0140712717 0.1095086951
0.2646168385 0.0132251817 0.1156243046
0.0445376889 -0.0128342337 -0.0566449429
0.0522298684 -0.0136010153 -0.0350976555
0.0694993855 -0.0108252228 -0.0332455479
0.0758102475 -0.0119495093 -0.0038741197
0.0368892130 -0.0190959967 -0.0073713882
0.0611765959 -0.0153845206 0.0049715465
0.0493637237 -0.0157414498 -0.0162793486
0.0534853160 -0.0174612540 0.0111112838
0.0375323577 -0.0126541388 -0.0047919258
0.0576021813 -0.0087063105 -0.0006531544
0.1005513763 -0.0032210347 0.0231096168
0.0415856533 -0.0074390775 -0.0279395617
0.0704826079 -0.0046762779 -0.0085851266
0.0947868758 -0.0038618103 0.0193411288
0.0670301596 -0.0011398062 -0.0436670591
0.1151043980 -0.0045839022 0.0494642126
0.1187277567 0.0012602434 0.0175312275
0.0388031698 -0.0041256947 -0.0542809589
0.1369823500 0.0059951611 -0.0006548718
0.1295022462 0.0016377281 0.0299789496
0.1297353385 0.0048232066 0.0023787398
0.1292872969 0.0054541021 -0.0107834443
0.1727778998 0.0084291253 0.0417017982
0.1630131324 0.0084369346 0.0208624381
0.0528479141 -0.0003077015 -0.0764470123
0.1866786771 0.0106506655 0.0167161950
0.1792861631 0.0068890165 0.0644099791
0.1799872722 0.0104213943 0.0218259741
0.2140737964 0.0103974774 0.0883564919
0.1966163647 0.0121307383 0.0365923407
0.1949418001 0.0099688796 0.0201912049
0.2301566018 0.0144466370 0.0793499192
0.1001633246 -0.0020076475 -0.0471063135
0.2618780370 0.0159320841 0.1147961712
0.2754900402 0.0190803301 0.1097857962
0.2341698346 0.0157987902 0.0690109648
0.2665321466 0.0180430383 0.0725349435
0.2595032582 0.0148572933 0.1194365222
0.2351036089 0.0157640526 0.0750569359
0.3148194261 0.0240232647 0.1118318397
0.0818489194 -0.0050527247 -0.0557176904
0.1831681316 0.0047024040 0.0223270899
0.3306503795 0.0258162805 0.1387283201
0.1034682062 -0.0042631862 -0.0346501993
0.2203025859 0.0090915101 0.0486894713
0.2605161458 0.0141701884 0.0731145257
0.0562831002 -0.0081156729 -0.0688328339
0.1496018030 -0.0009359698 0.0239081800
0.1128541423 -0.0043241551 -0.0200729700
0.1852217176 0.0032624252 0.0576829301
0.2226631749 0.0087087428 0.0673240707
0.3220624080 0.0209406157 0.1238509849
0.3137805495 0.0199789266 0.1170838535
0.0535064401 -0.0110883007 -0.0595453476
0.1005759017 -0.0092665517 0.0228369692
0.0953800416 -0.0091149106 0.0078950943
0.1222194153 -0.0063971167 0.0373810886
0.1116902076 -0.0065613981 0.0106116913
0.1718345887 0.0005414233 0.0687798332
0.1681671607 0.0012719768 0.0434654293
0.2074447578 0.0059816446 0.0793271624
0.2354920810 0.0102658078 0.0765158136
0.2969437586 0.0171409177 0.1369755132
0.2647209834 0.0130297958 0.1229640528
0.3362994178 0.0226014337 0.1366366452
0.0447647140 -0.0149789602 -0.0330918864
0.0829544789 -0.0110794879 0.0029121840
0.0832275974 -0.0098445228 -0.0116696959
0.3428780232 0.0236094365 0.1664691865
0.0347451212 -0.0152602990 -0.0476954716
0.0590066947 -0.0129266209 -0.0300973449
0.0565593321 -0.0171965574 0.0150976294
0.3527903048 0.0224033281 0.1671066902
0.0529501598 -0.0397426772 -0.0061000321
0.0424659969 -0.0430111440 -0.0117876655
0.0518326680 -0.0434465462 -0.0023503491
0.0532217835 -0.0350538639 0.0139276587
0.0435904876 -0.0412412099 0.0116068753
0.0349936988 -0.0189454401 0.0011045494
0.0485672174 -0.0145863254 0.0020655027
0.0477816446 -0.0402812396 0.0126370474
0.0125830869 -0.0391908621 0.0406519994
0.0076753145 -0.0404096470 0.0349928286
0.0241219537 -0.0407118517 0.0363418665
0.0235788055 -0.0427049731 0.0602159444
0.0104519385 -0.0380755685 0.0496649177
0.0091700702 -0.0334499741 0.0216878934
0.0191752004 -0.0347149333 0.0248847282
0.0156436024 -0.0317066146 0.0455797014
0.0095248336 -0.0271582589 0.0385908855
0.0162105155 -0.0300197072 0.0379742079
0.0144617313 -0.0202237185 0.0349392444
0.2235314238 0.0030614186 0.0454038015
0.2374585831 -0.0193634449 0.0437414220
0.2161928606 -0.0012234241 0.0463164496
0.2171662907 -0.0217643469 0.0417620719
0.2210342886 -0.0156654108 0.0555504530
0.2266334685 0.0037796008 0.0028363014
0.2248448050 0.0033558698 0.0396064515
0.2146415875 -0.0046374558 -0.0024755574
0.2122987891 -0.0097157552 0.0392513958
0.2383561256 -0.0181167895 0.0386813388
0.2359139224 -0.0220935806 0.0071917590
0.2237326567 -0.0247855615 0.0371321835
0.2266275736 0.0043992432 0.0258739782
0.2245383211 0.0017919680 0.0469234054
0.2151917904 -0.0061874167 0.0025482408
0.2135965481 -0.0102128015 0.0458086537
0.2395552619 -0.0174630138 0.0333535775
0.2144649048 -0.0202830977 0.0246002824
0.2205246036 -0.0217056960 0.0464927411
0.2286322705 0.0017028458 -0.0030931082
0.2306619416 -0.0079624940 0.0491110012
0.2309891987 -0.0096124835 0.0603480497
0.2289521014 0.0013897496 0.0049840002
0.1453934511 -0.0124961792 -0.0235349546
0.1254166371 -0.0306295256 -0.0232958234
0.1478553746 -0.0165141490 -0.0233833518
0.1385361195 -0.0341894907 -0.0216168545
0.1362323174 -0.0296129012 -0.0186733954
0.1405892176 -0.0076774262 -0.0647538094
0.1457792266 -0.0114197685 -0.0359308467
0.1496334484 -0.0175741611 -0.0377662434
0.1206644292 -0.0182369182 -0.0441489196
0.1472834188 -0.0305784989 -0.0652335117
0.1258273430 -0.0338137916 -0.0496730300
0.1334576257 -0.0364822803 -0.0391039538
0.1281526075 -0.0101511151 -0.0729443356
0.1476629062 -0.0153379190 -0.0725695000
0.1268329691 -0.0117586044 -0.0261358224
0.1217863025 -0.0155966537 -0.0380248826
0.1495988348 -0.0268890394 -0.0634077431
0.1450935779 -0.0334730735 -0.0464105029
0.1397599319 -0.0351883131 -0.0678229532
0.1288069159 -0.0116161066 -0.0668486631
0.1375119506 -0.0231325040 -0.0219500009
0.1316147847 -0.0245188321 -0.0114109355
0.1378125995 -0.0270122781 -0.0660770014
