-0.0092631327 -0.0443926329 -0.2510995224
0.0094663272 -0.0461750432 -0.2484700717
-0.0080937055 -0.0646724761 -0.2429893104
0.0009619967 -0.0581815273 -0.2311603079
0.0079946967 -0.0670067575 -0.2450948720
0.0012990167 -0.0211286632 -0.2560318707
0.0011129847 -0.0253339366 -0.2529047400
0.0722341469 -0.0515992419 0.0219442575
0.0691522638 -0.0508535070 0.0209705228
0.0718823377 -0.0709734073 0.0118008542
0.0757872817 -0.0552106446 0.0024841845
0.0752481746 -0.0604679933 -0.0003293176
0.0496437145 -0.0632339328 0.0020703955
0.0558070867 -0.0666914453 0.0201946321
0.0502354146 -0.0501033795 0.0196903049
0.0515962113 -0.0646508813 0.0004191123
0.0499703424 -0.0477713715 0.0169750885
0.0618511990 -0.0342714960 0.0131998243
0.0608551940 -0.0323421162 0.0115454169
0.0724260884 -0.0196080064 0.0629212320
0.0743878767 -0.0195219811 0.0338269162
0.1286388011 -0.0172027577 0.0577827053
0.1308264219 -0.0169106383 0.0384413713
0.1963407254 -0.0077623876 0.0930082312
0.1966700976 -0.0117115157 0.0789520049
0.0807483040 -0.0162502809 0.0499229699
0.0521974975 -0.0178376699 0.0550914634
0.1043292659 -0.0130928487 0.0552154297
0.1665673050 -0.0090590411 0.0654207304
0.0558043565 -0.0144918021 0.0384935673
0.2563902809 -0.0013482764 0.0904837782
0.1453680415 -0.0096696204 0.0650421070
0.2176122065 -0.0032752223 0.0833883290
0.2161276973 -0.0029037919 0.0799348852
0.0521175260 -0.0145273262 0.0367554017
0.0927623321 -0.0106953685 0.0343849852
0.1126931155 -0.0099979702 0.0413731647
0.0769345751 -0.0200464829 0.0313803822
0.1552880555 -0.0126740743 0.0489187072
0.2474805786 -0.0015991862 0.0918822785
0.1884212744 -0.0097510131 0.0587756787
0.2710038979 0.0010221645 0.0995676212
0.2747416630 0.0020530585 0.0962332897
0.2364549822 -0.0003951245 0.0808143994
0.0560770013 -0.0117996740 0.0206206625
0.1075629723 -0.0192289249 0.0230218056
0.2168688463 -0.0081579795 0.0612839961
0.0752842117 -0.0102178986 0.0175692661
0.0898450707 -0.0215928512 0.0171499119
0.2501453722 -0.0053183803 0.0694398952
0.1771526105 -0.0036224487 0.0518534089
0.1658212632 -0.0145397420 0.0319102813
0.0486525131 -0.0108155207 -0.0070725443
0.1459996301 -0.0054641145 0.0348310176
0.1250654556 -0.0068393015 0.0250822731
0.0799186252 -0.0243086697 0.0034719360
0.2331758828 0.0008545884 0.0640141680
0.1750735107 -0.0030509135 0.0365422154
0.0297472589 -0.0122726452 -0.0364734531
0.0508064842 -0.0278680610 -0.0231128555
0.0767206224 -0.0243522420 -0.0154380277
0.1616035833 -0.0119482579 0.0096080213
0.1143218003 -0.0155224167 -0.0149852495
0.2949041716 0.0101317373 0.0812142204
0.2944773454 0.0083855546 0.0817653153
0.1877461830 -0.0081495157 0.0206669202
0.0482583286 -0.0232959112 -0.0480620341
0.1102816411 -0.0180978347 -0.0121296226
0.1967155734 -0.0021151793 0.0320902860
0.1830955546 -0.0061705353 0.0175181464
0.2812965021 0.0036167640 0.0697220872
0.1434238726 -0.0063351966 0.0037429219
0.1445140172 -0.0069788559 0.0017826630
0.0854900244 -0.0105468401 -0.0256007714
0.0579571316 -0.0166215570 -0.0471103741
0.0899540940 -0.0103498827 -0.0236465844
0.0578848654 -0.0174212655 0.0548102130
0.0959695611 -0.0138947616 0.0560390658
0.1458331019 -0.0102351177 0.0641605348
0.1825515220 -0.0072016845 0.0735152650
0.1269050413 -0.0110974841 0.0591212222
0.0960745535 -0.0106486754 0.0358839451
0.0322798795 -0.0152841340 0.0303131365
0.1306542873 -0.0152073170 0.0398727461
0.1593151905 -0.0121234929 0.0510185368
0.1079723497 -0.0189393542 0.0245174673
0.0366278025 -0.0128346722 0.0145074025
0.2931495838 0.0025537710 0.1064694979
0.0568164209 -0.0115597203 0.0178704921
0.0334856531 -0.0129792060 0.0129337862
0.2004153061 -0.0026441393 0.0660425609
0.0747806775 -0.0102007495 0.0168206307
0.3070516599 0.0552956845 0.1217299172
0.2936595397 0.0034564633 0.1033464665
0.1460409359 -0.0054587466 0.0368467800
0.1425523572 -0.0170708087 0.0218688936
0.1870314902 -0.0123226739 0.0390035775
0.2989424064 0.0239842976 0.1127490217
0.0291242085 -0.0121054997 -0.0104571172
0.0661274775 -0.0099554749 0.0006054921
0.1223369302 -0.0069456697 0.0224310733
0.2667213590 0.0031624345 0.0778593768
0.2307460333 0.0007176785 0.0618838655
0.2058733024 -0.0009501524 0.0499871769
0.0585505708 -0.0270817341 -0.0037535673
0.3042596415 0.0417762126 0.1059733469
0.0905954251 -0.0084994468 -0.0008891525
0.0751851822 -0.0248480294 -0.0123071619
0.1273456917 -0.0183931865 0.0078554329
0.0875431303 -0.0086957698 -0.0036187352
0.2810900581 -0.0017185815 0.0734251760
0.2988026763 0.0263125329 0.0919326539
0.0693423712 -0.0100727608 -0.0206707764
0.0518681983 -0.0110431663 -0.0287598553
0.2317948789 -0.0042673528 0.0426713110
0.1111367754 -0.0074227867 0.0060127346
0.0604158633 -0.0245599621 -0.0333587873
0.2145922599 -0.0045512734 0.0331756020
0.2486624629 0.0004355605 0.0515074105
0.2479468832 0.0010912322 0.0533353321
0.1652150667 -0.0046195531 0.0147554162
0.2650020027 0.0019166738 0.0600626563
0.1275508626 -0.0083497244 -0.0068294514
0.0296984466 -0.0144754133 -0.0565954693
0.0724223225 -0.0143575362 -0.0385813334
0.2993178055 0.0249120847 0.1141268101
0.3006358432 0.0251499556 0.0942949015
0.3045434469 0.0418745862 0.1078118459
0.3058322740 0.0567685625 0.1159249416
0.0990408770 -0.0266330292 -0.0254614300
0.0952196174 -0.0526524471 -0.0500876498
0.1122918387 -0.0319132739 -0.0547312747
0.0853279709 -0.0279044101 -0.0349436588
0.0769832638 -0.0298238781 -0.0706721070
0.0823346856 -0.0454220923 -0.0387375514
0.0871677749 -0.0408175513 -0.0191505327
0.0948637202 -0.0345471390 0.0038091268
0.0785264252 -0.0459095584 -0.0561460784
0.0819820122 -0.0454107911 -0.0857715846
0.0905391160 -0.0161412214 -0.0642463121
0.0836468839 -0.0263830295 -0.0861438642
0.0854048737 -0.0244184637 -0.0866740181
0.0986262564 -0.0266145802 -0.0246107694
0.0897507776 -0.0541513776 -0.0720427900
0.0976982577 -0.0459155889 -0.0307549644
0.0958338037 -0.0526496537 -0.0496023041
0.0923605891 -0.0361035274 -0.0756833204
0.0969432008 -0.0521820905 -0.0861251815
0.1087561573 -0.0510938307 -0.0619051767
0.1122347010 -0.0345949314 -0.0362361157
0.1010017656 -0.0419506070 -0.0112314164
0.1147051450 -0.0309102074 -0.0690677598
0.1101696322 -0.0400124282 -0.0837133177
0.1107562948 -0.0363759646 -0.0867853518
0.0797795151 -0.0245137151 -0.0515813281
0.0763417801 -0.0330621672 -0.0707367630
0.0783176218 -0.0461406444 -0.0594248680
0.0986431350 -0.0175893292 -0.0434033323
0.1032829373 -0.0192459241 -0.0804196172
0.1053645611 -0.0195522749 -0.0779771803
0.1073431739 -0.0513753476 -0.0687189617
0.1121517863 -0.0415673668 -0.0401099020
0.0996361161 -0.0209241397 -0.0468583625
0.0970219970 -0.0325588603 0.0302892468
0.0941509977 -0.0194700623 -0.0656319478
0.0955413778 -0.0329619234 0.0295181342
0.0941509977 -0.0240015824 -0.0061021966
0.0128028191 0.0208972859 0.3209190663
0.0333600216 0.0255394882 0.3390782759
0.0509234975 0.0283582044 0.3568116101
0.0160664463 0.0252429824 0.3544656695
0.0355648449 0.0267699653 0.3833587968
0.0369786678 0.0245574135 0.4048427145
0.0109295815 0.0214206769 0.3937948841
0.0747058038 0.0294319309 0.4179368969
0.0910829928 0.0323770222 0.4163546013
0.1145969413 0.0349618472 0.4000419888
0.0338466112 0.0271830990 0.3646067257
0.0188981624 0.0250664099 0.3736285815
0.0822728553 0.0321211400 0.4024233522
0.1129289465 0.0347221933 0.4272093412
0.0332449525 0.0239669948 0.4044936448
0.0544078345 0.0275483847 0.4044132640
0.0890939992 0.0301761085 0.3775693708
0.1011369307 0.0317696320 0.3874350241
0.0728216864 0.0281316562 0.3647287533
0.1000270390 0.0312666789 0.3911715675
0.0121113792 0.0180317738 0.3361846415
0.0521431018 0.0258654352 0.3493807835
0.0718958465 0.0287844125 0.3632881585
0.0518493410 0.0231789860 0.3761678275
0.0679306138 0.0258220252 0.3886100397
0.0533406539 0.0234230572 0.3766927865
0.0812572246 0.0282841519 0.4008034904
0.0587265261 0.0258508663 0.4034936571
0.1116051381 0.0339450644 0.4246242346
0.0323057456 0.0212338648 0.3393548574
0.1148665581 0.0346454968 0.4005756157
0.0388947821 0.0218000566 0.3859884350
-0.0760419293 -0.0489017537 0.0139674046
-0.0708423301 -0.0588223348 -0.0013373927
-0.0726337778 -0.0707863258 0.0102751771
-0.0707988585 -0.0704040586 0.0137662107
-0.0498674372 -0.0608165599 0.0010137081
-0.0502262015 -0.0544167086 0.0002337399
-0.0508943794 -0.0695323679 0.0155910563
-0.0499396216 -0.0534682445 0.0188359729
-0.0614267904 -0.0384525143 0.0125470212
-0.0602856593 -0.0385508692 0.0114664512
-0.0742158435 -0.0162957642 0.0632320305
-0.0754696052 -0.0187763678 0.0517254244
-0.0724255615 -0.0172321150 0.0312296639
-0.1327141432 -0.0170302399 0.0534889950
-0.1303075881 -0.0125978931 0.0732167302
-0.1986147150 -0.0100105739 0.0848005223
-0.1958454027 -0.0109623979 0.0847437864
-0.0531625246 -0.0172176431 0.0549533259
-0.1858663084 -0.0080259072 0.0670558055
-0.1616792287 -0.0109150682 0.0563295419
-0.2150517406 -0.0031950939 0.0806716650
-0.2653839772 -0.0004985251 0.0936622514
-0.2385986150 -0.0021287906 0.0912849547
-0.1485348723 -0.0135840908 0.0454818235
-0.0914608742 -0.0100130954 0.0294390518
-0.1832791978 -0.0047877812 0.0652791981
-0.0374990914 -0.0123838095 0.0084156718
-0.0715514644 -0.0233808083 0.0155723273
-0.0311615588 -0.0242192221 0.0243521538
-0.0788263207 -0.0095714380 0.0104945100
-0.1122757723 -0.0188848514 0.0228181464
-0.1369174373 -0.0061522712 0.0333665694
-0.1772133648 -0.0033049494 0.0502625399
-0.1762925522 -0.0032641370 0.0484016671
-0.2411279216 -0.0063716584 0.0643952038
-0.2008586966 -0.0015712027 0.0554612210
-0.0345885376 -0.0115878505 -0.0159795487
-0.1947652358 -0.0019992374 0.0521785438
-0.1732699124 -0.0138807600 0.0321559733
-0.0966205084 -0.0082790932 0.0068523509
-0.2208076139 0.0000009201 0.0582703834
-0.1572545890 -0.0043497446 0.0311178420
-0.1250237192 -0.0066483958 0.0207064877
-0.1114037535 -0.0202781139 0.0022526415
-0.0672612896 -0.0098042531 -0.0122346493
-0.0658293150 -0.0262468999 -0.0031785535
-0.1431267943 -0.0140630415 0.0012165930
-0.2384544866 -0.0046524305 0.0473564703
-0.2943066196 0.0006038771 0.0751733464
-0.2564238315 -0.0016798573 0.0543641595
-0.0607595883 -0.0261608764 -0.0249499662
-0.0559576188 -0.0115810157 -0.0364333223
-0.0513514853 -0.0230545908 -0.0464506804
-0.2278404192 -0.0025488920 0.0396586811
-0.1593577502 -0.0052144200 0.0112057203
-0.0869833906 -0.0102455891 -0.0241657519
-0.1223006083 -0.0079780861 -0.0068158092
-0.1788831381 -0.0053016931 0.0163824562
-0.1820895718 -0.0053029157 0.0176997918
-0.1052053624 -0.0092197161 -0.0153680252
-0.0758815181 -0.0141980161 -0.0369279237
-0.0962085373 -0.0142590421 0.0557173943
-0.0562943892 -0.0169241646 0.0546904589
-0.1143468084 -0.0129971405 0.0550216722
-0.1652724205 -0.0083547336 0.0712811129
-0.1461426331 -0.0096593842 0.0654046178
-0.0527302745 -0.0207760566 0.0364762060
-0.0324059332 -0.0212960726 0.0396190399
-0.2636451335 -0.0004717235 0.0944925491
-0.1215568490 -0.0084746479 0.0389939180
-0.1198172965 -0.0155613122 0.0393781092
-0.0758665161 -0.0201416498 0.0313870944
-0.0537997835 -0.0120466288 0.0214590409
-0.2232038492 -0.0019482817 0.0795544453
-0.2880030175 0.0015506166 0.1007796761
-0.1067489102 -0.0191502278 0.0239814130
-0.0376588017 -0.0122730670 0.0068607163
-0.2802842207 0.0019817850 0.1008886704
-0.2518029833 -0.0038715530 0.0786979417
-0.0636917917 -0.0103860467 0.0063696890
-0.2400025631 -0.0061318934 0.0674020424
-0.2979572983 0.0164632668 0.1103818504
-0.2758606390 -0.0026198130 0.0788131723
-0.0323009660 -0.0118511443 -0.0120364600
-0.0509712513 -0.0106232669 -0.0096078561
-0.2548974222 0.0022746957 0.0740463271
-0.1434869795 -0.0169948053 0.0221750957
-0.0948080624 -0.0083896695 0.0068364135
-0.2175503869 -0.0002471508 0.0578061860
-0.0803391762 -0.0243520730 0.0020056669
-0.1139707319 -0.0199693966 0.0031659143
-0.1571854439 -0.0042970305 0.0289249122
-0.3064600142 0.0574640881 0.1153419337
-0.3003965428 0.0325116463 0.0978709826
-0.2707638410 -0.0007942538 0.0619543362
-0.1919213870 -0.0112119986 0.0329847774
-0.2967999603 0.0176139586 0.0887317569
-0.2102993866 -0.0086201475 0.0379709483
-0.1932974919 -0.0109052265 0.0326344178
-0.0653568267 -0.0258543297 -0.0198382592
-0.1045371245 -0.0085969885 -0.0112919253
-0.2101492001 -0.0085119207 0.0373955259
-0.2933225893 0.0021499445 0.0723738848
-0.0939427123 -0.0216598690 -0.0127436042
-0.0555854596 -0.0115880044 -0.0364700361
-0.1220313176 -0.0127414645 -0.0130555933
-0.1393625447 -0.0063351435 0.0038072011
-0.2724345236 0.0021067112 0.0628418927
-0.1600957732 -0.0053826791 0.0107958629
-0.0889298754 -0.0105746135 -0.0247894587
-0.2974032211 0.0134366048 0.1077173837
-0.3019690440 0.0368977441 0.1163546236
-0.3071037456 0.0562850495 0.1195033840
-0.2983945273 0.0133475557 0.0868382603
-0.0872081131 -0.0317790708 -0.0241086466
-0.1079097998 -0.0473270829 -0.0448766335
-0.0855913376 -0.0322412426 -0.0241140829
-0.0801803763 -0.0280484322 -0.0832753867
-0.0838660138 -0.0477325141 -0.0492131348
-0.0789685386 -0.0462943283 -0.0663001823
-0.0849762809 -0.0249634888 -0.0879216321
-0.0954731013 -0.0482860473 -0.0332704132
-0.1055246910 -0.0308968051 -0.0321404421
-0.0965478697 -0.0560230845 -0.0615069441
-0.0992487781 -0.0539244402 -0.0788600974
-0.1057186625 -0.0223767923 -0.0860799225
-0.1145052493 -0.0308534732 -0.0495616311
-0.1111528495 -0.0473565577 -0.0508417078
-0.0983420155 -0.0373066820 -0.0766765859
-0.1122279024 -0.0406154984 -0.0845350484
-0.0781329411 -0.0335272589 -0.0412291168
-0.0770476550 -0.0283708986 -0.0602220527
-0.0903095916 -0.0166250465 -0.0676174016
-0.0787085783 -0.0457947532 -0.0673472852
-0.0827923244 -0.0475273985 -0.0825974904
-0.1079692166 -0.0201279030 -0.0674462267
-0.0963456278 -0.0559329589 -0.0602673425
-0.1097351514 -0.0217930028 -0.0700338124
-0.1120577519 -0.0468911532 -0.0677253916
-0.0819419263 -0.0315596854 -0.0428485636
-0.0934033250 -0.0385779633 -0.0054615105
-0.1072305348 -0.0303187073 -0.0334821608
-0.1027911007 -0.0424510748 -0.0183335219
-0.0950369995 -0.0241659522 0.0418301258
-0.0943889990 -0.0301576642 0.0276844576
-0.0951414638 -0.0247436165 -0.0546971221
-0.0943889990 -0.0277843994 0.0095637845
-0.0943889990 -0.0154845374 -0.0412719407
-0.0943889990 -0.0287340759 0.0113160762
-0.1118803999 0.0356689595 0.4055642159
-0.0161038180 0.0252283600 0.3498109497
-0.0797703396 0.0321644028 0.3929410261
-0.0493311356 0.0286723233 0.3848503752
-0.0738202200 0.0294516493 0.4161000805
-0.0501609520 0.0269524283 0.4030002203
-0.0460250205 0.0273171496 0.3485833233
-0.0778493618 0.0308629664 0.3695671811
-0.0582856744 0.0295280396 0.3653682119
-0.0476864290 0.0275743349 0.3502010446
-0.1133732781 0.0357224813 0.4071069768
-0.0394304604 0.0277624121 0.3700869053
-0.1155411960 0.0352893669 0.4238123644
-0.0110359883 0.0224687434 0.3844119020
-0.0219870683 0.0223524945 0.4016347550
-0.1121353120 0.0344564637 0.4289106073
-0.0325015929 0.0220084343 0.3366355621
-0.1021963812 0.0318096127 0.3890582257
-0.0928942761 0.0317268352 0.3780097778
-0.0394673117 0.0211125322 0.3711394213
-0.0665595679 0.0255626621 0.3900167652
-0.0214490665 0.0216344788 0.4008514364
-0.0442107333 0.0241415140 0.4020023276
-0.0933032599 0.0303907644 0.4086764877
-0.0336755949 0.0220764448 0.3377972202
-0.0134743735 0.0175842022 0.3342137793
-0.0325483313 0.0199602649 0.3565599350
-0.0093257187 0.0188997847 0.3840206441
-0.0710705450 0.0283027642 0.4139948204
-0.0951211721 0.0318479317 0.4231339594
-0.0339563127 0.0214363168 0.3875524867
0.0416320004 -0.0308992708 0.0150178106
0.0338804994 -0.0278194768 0.1020054421
0.0297285265 -0.0271441377 0.1413435229
0.0400298443 -0.0312653480 -0.0592581412
0.0368769141 -0.0370023241 0.0325278832
0.0410296913 -0.0321368044 0.0133372629
0.0404311984 -0.0243681735 -0.0775312758
0.0323803118 -0.0168109657 0.1258837753
0.0378911221 -0.0362067033 -0.0314098265
0.0146571892 -0.0433390187 0.0337278744
0.0323481870 -0.0054940295 0.1110041698
0.0301868898 -0.0050537070 0.1386679506
0.0280133463 -0.0394886877 -0.0460401707
0.0263979038 -0.0394684050 -0.0630665727
0.0009536093 -0.0449134086 0.0209473979
0.0049066307 -0.0435747476 -0.0236443268
-0.0014501684 -0.0329776702 0.1556295264
-0.0012845029 -0.0362305629 0.1191358722
-0.0015010690 -0.0429801033 0.0429535502
-0.0093331963 -0.0417895671 -0.0705294064
-0.0103738322 -0.0431755224 -0.0341293764
-0.0268688575 -0.0392672074 -0.0666583341
-0.0368733816 -0.0367643580 0.0360147065
-0.0375404770 -0.0310907607 0.0574280397
-0.0393739429 -0.0332578020 -0.0547332585
-0.0399802592 -0.0275176449 -0.0791728285
-0.0371543719 -0.0269999382 0.0772103392
-0.0398561803 -0.0233293523 -0.0805543231
-0.0372363654 -0.0239146538 0.0759942189
-0.0331233552 -0.0207299157 0.1254570724
-0.0343811981 -0.0187651402 -0.0986950762
0.0392438526 -0.0266195702 0.0476188813
0.0366880455 -0.0264660771 0.0791729295
0.0367599119 -0.0281089876 0.0755645084
0.0414960960 -0.0250934422 -0.0016186254
0.0270142261 -0.0375166611 0.0648165012
0.0328579081 -0.0194489956 0.1232034091
0.0305266870 -0.0328432593 0.0966863231
0.0225654132 -0.0390654431 0.0643499911
0.0407118977 -0.0223209225 -0.0762056546
0.0346130831 -0.0185837216 -0.0966996294
0.0255491226 -0.0280268887 0.1614284283
0.0138380263 -0.0419022282 0.0509075311
0.0347141444 -0.0211858861 -0.0971670679
0.0264706652 -0.0370140691 -0.0809020542
0.0104154030 -0.0315627575 0.1682678318
0.0202714353 -0.0426094093 -0.0120402544
0.0171752473 -0.0438453693 0.0055641269
0.0249102252 -0.0293085805 -0.1117883847
0.0019644141 -0.0446701010 0.0237168858
0.0195253413 -0.0420515106 -0.0302787054
0.0063048599 -0.0346625833 0.1367255816
0.0073402353 -0.0427805236 -0.0445034267
0.0051296630 -0.0406975737 -0.0783429418
-0.0025307689 -0.0379583745 0.0997518459
-0.0059796403 -0.0431004921 0.0415832048
-0.0094105353 -0.0423689035 -0.0553140070
-0.0113746539 -0.0439540075 -0.0136836377
-0.0169247077 -0.0438074537 0.0247715855
-0.0201851680 -0.0338376366 0.1255376012
-0.0186563398 -0.0321439859 0.1465925731
-0.0228738260 -0.0390159914 0.0648786298
-0.0231973868 -0.0407944497 -0.0471383936
-0.0216921619 -0.0294405372 0.1633817447
-0.0272379973 -0.0415751842 -0.0022568436
-0.0298629253 -0.0411793105 0.0141412669
-0.0304355284 -0.0395606158 -0.0225377409
-0.0310205370 -0.0332616145 0.0919712464
-0.0314671183 -0.0311213331 0.1105087879
-0.0386906468 -0.0296351334 0.0540538117
-0.0416488560 -0.0300650811 -0.0254624812
-0.0419370010 -0.0295246587 0.0144856491
-0.0419370010 -0.0292992608 -0.0070346705
-0.0287139817 -0.0069920936 0.1645368679
-0.0311597758 -0.0160201631 0.1447708391
-0.0349363522 -0.0072949514 0.0835883806
-0.0335135628 -0.0094702110 0.1051351404
-0.0348256897 -0.0086916218 0.0869252062
0.0009375619 0.0454658668 0.2746269050
0.0004997620 0.0465661472 0.2727488257
-0.0000586865 0.0433582740 0.2465139993
0.0367337425 0.0134436608 0.2113483543
0.0332617555 0.0168992962 0.2449547145
0.0307175813 0.0234540907 0.2422290833
0.0351451266 0.0007376398 0.2365779127
0.0065353851 -0.0360117027 -0.2684182859
-0.0005957309 -0.0371173781 -0.2655643824
-0.0070506792 -0.0382771178 -0.2374579171
0.0027380936 0.0262423253 0.4348860085
-0.0269260284 0.0292999468 0.2359984097
-0.0350749403 0.0081024080 0.2443931452
-0.0326979022 -0.0077353197 0.2394065129
0.0393905381 0.0109243361 -0.0427146516
-0.0409123650 0.0003688269 -0.1902858330
-0.0363464381 0.0191354968 -0.1880057470
-0.0304076989 0.0278245888 -0.2027993463
-0.0391200534 0.0124411508 -0.0013947568
-0.0385881417 0.0137227360 0.0199697165
-0.0391548817 0.0123578865 0.0770995612
0.0366752314 0.0177679741 -0.1550460358
-0.0373565199 0.0166979708 -0.1041381563
0.0241161758 0.0332227608 -0.1830330668
0.0405051369 0.0024480698 -0.1970366528
0.0404537193 -0.0012883028 -0.1972443474
0.0366108442 0.0179211452 -0.1880755477
0.0363167548 0.0186311360 -0.1016115554
0.0384893055 0.0133862700 0.1566475535
0.0379700702 0.0146398641 -0.0634446373
-0.0383273764 0.0143526679 0.1523350734
-0.0270169387 0.0131294601 -0.2526754233
0.0035316254 0.0115993298 -0.2764696565
0.0064893539 0.0216228962 -0.2600375731
0.0044743185 0.0217753404 -0.2608502123
-0.0141548175 0.0148581826 -0.2638615464
0.0193745764 0.0238407160 -0.2495798866
-0.0345632699 0.0166371260 -0.2288077667
-0.0351996992 0.0136897246 -0.2319287342
-0.0376702235 0.0159401556 -0.1234434159
0.0124670383 0.0327834576 -0.2381069219
0.0047547930 0.0399832182 -0.2130034676
0.0254604553 0.0294667127 -0.2235248408
0.0086320637 0.0404687601 -0.1938242826
-0.0214337767 0.0318149607 -0.2270439220
0.0277258906 0.0273024358 -0.2251228949
0.0181653174 0.0370344554 -0.1548901601
-0.0151658772 0.0376688407 -0.2102663485
0.0209941854 0.0355319435 -0.2049951206
0.0328465751 0.0243348809 -0.2037248303
-0.0383361337 0.0132357946 -0.2096501085
0.0389964149 -0.0093592090 -0.2122517933
-0.0395646787 -0.0055394147 -0.2157271032
0.0390744691 0.0011547999 -0.2247794307
0.0351396226 0.0057045221 -0.2423015224
-0.0372194611 -0.0099701885 -0.2329413915
0.0347091776 -0.0203558961 -0.1945998956
0.0346729711 -0.0187505392 -0.2242018385
0.0347807511 0.0069061030 -0.2429381831
-0.0240607196 0.0334487589 -0.1788744860
0.0366350704 -0.0163116807 -0.1769177577
0.0252223976 0.0323741194 -0.1587834773
0.0243795712 -0.0314702197 -0.1819225696
0.0319055632 -0.0093701362 -0.2549381171
-0.0375699116 -0.0146327348 -0.1980992269
0.0162788532 -0.0362648555 -0.2022991722
-0.0292446928 -0.0241454198 -0.2405143637
-0.0266357748 -0.0299217372 -0.1726367723
-0.0287539456 -0.0282965544 -0.2037671394
-0.0377429865 -0.0142134110 -0.1494264944
0.0266103696 0.0063905534 -0.2604109915
-0.0141998314 -0.0371571790 -0.2199478259
-0.0268735820 -0.0297392778 -0.1525186741
0.0082848848 -0.0389634741 -0.1787305816
-0.0139911576 -0.0371573295 -0.2228707259
-0.0255838054 0.0171741980 -0.2495950053
-0.0203549416 -0.0191438490 -0.2873348511
-0.0138497770 -0.0373695940 -0.1824511757
-0.0347126083 0.0222138146 -0.1726340423
-0.0029391927 -0.0396986705 -0.1592443534
0.0253790123 -0.0238629682 -0.2595941637
0.0156246857 -0.0005750157 -0.2873522246
-0.0205423168 -0.0194276293 -0.2865207595
-0.0095284924 -0.0388310673 -0.1842974215
0.0170891172 -0.0334843303 -0.2525323114
0.0159069172 -0.0128704689 -0.2993802725
0.0134273112 0.0024875544 -0.2859690077
0.0396001323 -0.0077794770 -0.1607881833
0.0154262143 -0.0279940671 -0.2869129813
-0.0114857376 0.0050026877 -0.2830882995
0.0003075557 -0.0167860090 -0.3173882816
-0.0407240611 0.0026119921 -0.1656935522
0.0403071164 0.0039518566 -0.1778676194
-0.0066893104 0.0362324832 -0.2328197476
-0.0100169189 0.0288215973 -0.2490200160
0.0022745031 0.0399101083 -0.2164865538
0.0039594960 0.0410839901 -0.1911699799
-0.0082160436 0.0405548740 -0.1796560988
0.0064721767 0.0407531492 -0.1656052499
-0.0163721341 0.0378757985 -0.1919006031
-0.0230457943 0.0274970923 -0.2368303281
0.0210539628 0.0354432391 -0.2053270826
-0.0168475278 0.0376788841 -0.1632296311
0.0380953277 0.0125351843 -0.2130677879
-0.0392471390 0.0110537219 -0.2095687828
0.0357556012 -0.0104838428 -0.2392555280
0.0325237354 -0.0232047162 -0.1569042657
0.0370094620 -0.0154081701 -0.1756781700
0.0271547691 -0.0291792067 -0.2155403568
-0.0366496003 -0.0108589226 -0.2354869666
-0.0296008710 -0.0264023497 -0.2237210078
0.0242751769 -0.0315503170 -0.1745843746
-0.0341482807 -0.0011967577 -0.2497642706
-0.0376197747 -0.0145124089 -0.1976173208
0.0195638514 -0.0349041655 -0.1578357622
0.0284354098 -0.0252400437 -0.2386196515
0.0263221139 -0.0100255068 -0.2703728809
-0.0325087401 -0.0077972510 -0.2544559381
-0.0250749558 -0.0311192875 -0.2002062865
-0.0370759401 -0.0158235740 -0.1745333167
-0.0262944037 0.0317348861 -0.1581256813
0.0159758921 -0.0363903460 -0.1574512548
0.0266372610 -0.0281826959 -0.2353884620
0.0337243767 0.0231906279 -0.1717422119
0.0093464396 -0.0388220047 -0.2192593664
0.0085285377 -0.0389313926 -0.1740953293
0.0242592908 -0.0076186838 -0.2749429172
-0.0260368463 -0.0151332038 -0.2700991590
-0.0246761572 0.0021041983 -0.2678900594
-0.0248396485 -0.0253963430 -0.2581042082
-0.0014016773 -0.0399008935 -0.2062542907
0.0122760895 -0.0368403972 -0.2367017831
-0.0020150053 -0.0398203569 -0.1574922396
0.0203095127 0.0083979228 -0.2674692378
-0.0191919782 -0.0306032135 -0.2606836266
-0.0028188854 -0.0397145112 -0.2012139420
0.0178348135 -0.0256237574 -0.2843618336
0.0125181889 -0.0100728107 -0.3031378595
-0.0126224834 -0.0165992047 -0.3068498033
0.0401786161 -0.0033796671 -0.1597896010
-0.0128692147 -0.0324386568 -0.2761353465
0.0091980390 -0.0270975004 -0.3061304869
-0.0106416635 -0.0297916281 -0.2981535159
-0.0083855762 -0.0012196806 -0.2978536497
0.0083695307 -0.0274936745 -0.3067572339
-0.0044482291 -0.0016659080 -0.3006538333
0.0009017601 -0.0348874682 -0.2869865528
0.0400302890 0.0060562105 -0.1762373948
0.0222214312 0.0346771393 -0.1812503354
-0.0408179461 0.0018995324 -0.1683233056
0.0366830813 0.0177466614 -0.1534340205
-0.0395824839 0.0112756094 -0.1512393932
0.0029003449 0.0835623182 0.3260500003
0.0026684482 0.0530674031 0.2979490987
0.0006107047 0.0713804250 0.3118767794
0.0033426880 0.0946703125 0.3394978693
-0.0004231312 0.1150637936 0.3498010742
0.0041609554 0.1079880664 0.3738449376
0.0061198120 0.0600800581 0.3423432665
0.0070488790 0.0366677552 0.3402001411
0.0038841434 0.0909076699 0.3786435781
-0.0028664310 0.0975898982 0.3380426185
0.0045650946 0.0717182496 0.3688133593
-0.0024540120 0.1278378103 0.3651077013
-0.0063211901 0.0407774791 0.3495113234
-0.0061827738 0.0638300257 0.3550063761
-0.0055358132 0.0797900171 0.3628659788
0.0002799709 0.1061382544 0.4108052482
0.0004327520 0.1091084638 0.4103011881
0.0020152382 0.0744445055 0.3895967177
0.0020531850 0.0973774560 0.3947239264
-0.0022439781 0.1443442556 0.3808991058
-0.0021289530 0.0739551156 0.3904729866
-0.0047471986 0.0998766092 0.3605870002
-0.0009352001 0.1615693643 0.4006001034
-0.0017809505 0.1599985193 0.4000581380
0.0014618522 0.1137061263 0.3496907540
0.0019486244 0.1496453682 0.3861102685
0.0061370621 0.0577249022 0.3242070430
0.0040703690 0.1105302943 0.3683947947
0.0053161598 0.0799957367 0.3504327729
0.0030967854 0.1339482009 0.3921903077
0.0062599224 0.0566083692 0.3409245448
0.0042951562 0.0357970146 0.3624482922
0.0040754153 0.0892169910 0.3766609705
-0.0031272854 0.0674572569 0.3114820059
0.0046310505 0.0532533798 0.3639188350
-0.0023074746 0.1299985449 0.3661475626
-0.0009221589 0.0405510049 0.3920946156
-0.0067717683 0.0505459052 0.3247423899
-0.0061921793 0.0637476282 0.3521168268
0.0020538172 0.0544484292 0.3845599658
-0.0000266746 0.1521728970 0.4241215971
0.0002708350 0.1271501246 0.4158497879
0.0010645084 0.1266836663 0.4094695051
-0.0000843251 0.0591525666 0.4025641730
0.0003928333 0.0840485867 0.4046862301
-0.0057568093 0.0736218203 0.3358532995
-0.0023800571 0.0556846891 0.3841669665
0.0004682748 0.1582080555 0.4211129146
-0.0020622223 0.1423122112 0.4062670653
-0.0037084654 0.1191858180 0.3875828163
-0.0036664569 0.1170280857 0.3875415032
-0.0088664660 0.0197671044 0.4221485642
0.0111315937 0.0196666055 0.4109389775
0.0108074883 0.0212136142 0.4135220903
-0.0092144091 0.0179638167 0.4178611912
-0.0197005116 0.0085692182 0.3502291704
-0.0306837739 0.0204312395 0.2597936025
-0.0296657727 0.0181829502 0.2771296471
-0.0254968924 0.0062544614 0.3124109512
-0.0302023822 -0.0003740030 0.2726021893
-0.0177339913 0.0034961535 0.3477333985
-0.0205332142 -0.0073774748 0.3007865476
-0.0218185554 -0.0214681193 0.2415448258
-0.0144690710 -0.0052711625 0.3290951798
-0.0062310199 0.0079071181 0.3984457836
-0.0111484378 -0.0240075458 0.2572066244
-0.0021579082 0.0079248838 0.4035209050
-0.0111801042 0.0312995125 0.3690251878
-0.0207631008 0.0341206249 0.2544537948
-0.0278702381 -0.0242700791 0.2022250663
-0.0263481241 -0.0286185063 0.1820475521
-0.0117093517 -0.0315672754 0.2187438807
-0.0053236536 -0.0176006317 0.2928326646
-0.0046881800 0.0322274084 0.4070572289
-0.0227947282 -0.0328688096 0.1654460452
-0.0212000153 -0.0340923653 0.0464060572
-0.0035612255 -0.0292608173 0.2392093444
-0.0032414125 -0.0055255867 0.3483738931
-0.0278108713 -0.0290201354 0.0927918688
-0.0198384358 -0.0348890115 0.1266001949
-0.0199957661 -0.0348238432 0.1462641950
-0.0102111871 -0.0344516284 0.2039423307
-0.0034820774 -0.0298730069 0.2360538792
0.0009589034 -0.0128465709 0.3169502958
-0.0381194154 -0.0101785916 0.1849484338
-0.0337376217 -0.0219335562 -0.0647481864
-0.0065406559 0.0385725734 0.2890331740
-0.0137651728 0.0386121114 0.2341586140
-0.0230698886 -0.0326576907 -0.1008912629
-0.0092963284 -0.0388616359 0.0802786321
-0.0104541488 -0.0387091875 -0.0304757329
-0.0106406135 -0.0386846359 0.0814645623
-0.0049953052 -0.0374733357 0.1865527892
0.0044634374 -0.0323915203 0.2220061072
0.0058734086 0.0041884632 0.3841565219
0.0083958994 -0.0075859794 0.3332499426
-0.0390738545 -0.0110008694 -0.0529458853
-0.0376979033 -0.0143222359 -0.0343174813
-0.0326585317 -0.0233399809 -0.1158364808
-0.0059122085 -0.0393072180 0.0973468283
-0.0044306760 -0.0395022891 0.1179998561
-0.0007692526 -0.0399843833 0.1545680705
-0.0068128717 -0.0391886290 -0.0915034061
0.0074070536 0.0052466105 0.3858029365
0.0132659140 -0.0146565290 0.2936763059
0.0025848893 0.0373917555 0.3136878345
-0.0026577548 0.0407068009 0.2457283307
-0.0404748908 -0.0029512114 0.1532637464
-0.0362198469 -0.0178900712 -0.1323320407
-0.0228805270 -0.0328029798 -0.1300384158
-0.0348302454 -0.0205094927 -0.1150985733
0.0004680243 -0.0399927084 0.0650121755
0.0035993841 -0.0395804070 -0.0059808134
0.0078452635 -0.0353063661 0.1997803666
-0.0167550442 0.0376617808 0.1832449342
-0.0401897388 -0.0051153346 0.0260419270
-0.0109850842 -0.0385561881 -0.1422649575
0.0096001574 -0.0387902941 0.1394397643
-0.0080532382 -0.0390253118 -0.1138494730
0.0216920688 -0.0244138583 0.2274120130
0.0203502348 -0.0154500864 0.2704853762
0.0172225491 -0.0178591206 0.2704498659
-0.0139811047 0.0388661949 0.0951315187
-0.0200800773 0.0363399189 0.0105986022
-0.0118323320 0.0397562452 0.1529995909
-0.0269541518 0.0312284599 0.1690493994
-0.0278451952 0.0305448003 0.1448928360
-0.0211251389 0.0357008134 0.0991858886
0.0041368208 0.0301760598 0.4313077772
-0.0405629815 0.0038320291 -0.0442595588
-0.0408370823 0.0017535655 -0.0256783133
-0.0404254720 0.0048747424 -0.0612946479
-0.0408439131 0.0017017688 0.1188800793
-0.0406148016 -0.0018893764 -0.0809657575
-0.0406182443 -0.0018632487 -0.1103945682
0.0124936400 -0.0378327412 0.0070164282
0.0164408868 -0.0361977390 0.0822772666
0.0090272414 -0.0388657291 -0.1011332881
-0.0068727035 -0.0391807510 -0.1394788120
0.0155092623 0.0047609191 0.3590576982
0.0064541018 0.0359268797 0.3372971628
0.0032754485 0.0411740714 0.1966606770
-0.0080360328 0.0405785757 0.1148844332
-0.0004396348 0.0415787821 -0.0152009290
-0.0028339011 0.0412635326 0.1363724196
-0.0145965167 0.0386112830 -0.0055171930
-0.0108222687 0.0401746269 0.1146457034
-0.0276022766 0.0307311814 0.1176790761
-0.0271013895 0.0311154907 0.0797364969
-0.0289957996 0.0296619905 0.0812706194
-0.0253219601 0.0324807711 -0.0521609178
-0.0283428785 0.0301629491 -0.0125349782
-0.0290978050 0.0279168230 0.2104746966
-0.0399171750 -0.0071839209 -0.1469941338
0.0118269419 -0.0381088965 -0.0599130381
0.0121668684 -0.0379680944 -0.0982269840
0.0154294338 0.0066336479 0.3648693316
0.0143773715 0.0358797164 0.2866801530
-0.0105868890 0.0402427083 -0.0330025756
-0.0062607786 0.0408123208 0.0496842469
-0.0068000096 0.0407413210 -0.0552179503
0.0020242454 0.0413388016 0.0868456757
0.0019556240 0.0413478369 0.0854321072
-0.0135533511 0.0390433761 -0.0718721238
-0.0253086776 0.0324909622 -0.0877814182
-0.0307585954 0.0273672502 0.0032022095
-0.0295204427 0.0289809880 -0.0164986117
-0.0316241340 0.0255787875 0.1876641110
-0.0403586294 0.0053815995 0.0936281460
0.0245349108 -0.0313510343 0.0455608735
0.0089590970 -0.0388747016 -0.1194079611
0.0280443843 -0.0147077839 0.2421000898
0.0270969964 -0.0293852545 0.1377799488
0.0271072033 -0.0238280117 0.2086569410
0.0161402034 0.0331719083 0.3034357560
0.0159179228 0.0375900945 0.2386974039
-0.0109246243 0.0401322299 -0.0889324902
-0.0128824921 0.0393212549 -0.1082795927
-0.0294309452 0.0290976340 -0.1033097591
-0.0296786644 0.0287747709 -0.0670275721
-0.0351550339 0.0216371823 0.0936588879
-0.0341058622 0.0230046130 0.0595971809
0.0125826169 -0.0377958858 -0.1359554678
0.0227680612 0.0033271863 0.3207974891
0.0136213136 0.0389166423 0.1066975512
0.0124202494 0.0394141391 0.1075425461
0.0125117738 0.0393762285 0.0384111530
-0.0091578689 0.0404308652 -0.1086604098
0.0082850234 0.0405144544 -0.1056408736
0.0063584402 0.0407681247 -0.0900172117
-0.0256844631 0.0322026380 -0.1182015787
0.0257342653 -0.0304308203 -0.1074146696
0.0361613086 -0.0118687271 0.1952598484
0.0378586309 -0.0133588905 0.0962320272
0.0317988714 -0.0241496084 -0.0195701802
0.0339037548 -0.0214058002 -0.0380637989
0.0325263929 -0.0018934908 0.2549780824
0.0302564216 -0.0051531762 0.2600574577
0.0205476072 0.0353831005 0.2066313164
0.0204624507 0.0357750165 0.1869957733
0.0191911679 0.0366095345 0.1394624221
-0.0101853463 0.0402955788 -0.1268422930
-0.0258785664 0.0320537108 -0.1383238674
0.0338447734 -0.0101390626 0.2226166347
0.0398005079 -0.0025095350 0.1784059633
0.0210293759 0.0355916814 -0.0647472185
0.0227950610 0.0342369464 0.0228459868
0.0267709631 0.0311864060 -0.0418366189
-0.0044217927 0.0410544573 -0.1465960608
0.0199590017 0.0362914875 -0.0803937827
0.0396563807 -0.0073516650 0.0765052013
0.0397460425 -0.0066697188 0.1546541670
0.0258649852 0.0174213378 0.3082900119
0.0280278855 0.0158990906 0.2926963207
0.0311852861 0.0262245723 0.1784522447
0.0287201324 0.0296908914 0.0430407953
0.0237053258 0.0335385390 0.0958157580
0.0278540997 0.0287571752 0.2196863592
0.0120713788 0.0395586460 -0.1393840757
0.0403413615 -0.0021418643 -0.0316272248
0.0406102636 -0.0000966589 0.0401658071
0.0402853669 -0.0025677462 -0.0994742673
0.0318589344 0.0245319461 0.1979289060
0.0289746468 0.0293821099 0.1623834150
0.0313073584 0.0263413176 0.0599774202
0.0326345037 0.0246113253 0.0876868622
0.0289856545 0.0293677608 -0.0094651533
0.0398152455 -0.0061433773 -0.0819736377
0.0390674350 -0.0104417117 -0.1167083684
0.0306983897 0.0271351352 -0.0571391667
0.0405801576 0.0018775340 -0.0806259515
0.0352846553 0.0211218075 0.1274656387
0.0345225634 0.0221501564 -0.0775280072
0.0270068431 0.0310054253 -0.1318343573
0.0382541107 0.0085816369 0.1968588400
0.0402684946 0.0042432729 0.0954318442
0.0398337451 0.0075453024 0.0169761677
0.0352917657 0.0211046933 -0.1074807104
0.0290647307 0.0292646815 -0.1391952875
-0.0397302972 0.0101507605 0.0036018572
-0.0387214030 0.0134026793 -0.0657450595
0.0399384617 0.0067499541 -0.1385365117
-0.0351872842 0.0154945666 0.2273746470
-0.0376639965 0.0117373746 0.2040226277
0.0394147069 0.0107355202 0.0723950382
-0.0373657440 0.0130142942 0.2062716433
-0.0369232952 0.0177428315 0.1098563277
0.0364699498 0.0182600158 0.0036243830
0.0389340773 0.0123127977 0.1114098092
0.0368648083 0.0173067250 0.0455051493
-0.0162347586 0.0101788712 0.3708280150
-0.0321417137 0.0174248645 0.2579035947
-0.0285558854 0.0057437108 0.2912421860
-0.0299640306 0.0001886029 0.2752045549
-0.0238855267 0.0232548154 0.3098532422
-0.0179000137 -0.0016291089 0.3308245451
-0.0234307922 0.0268616109 0.2947442538
-0.0286685909 -0.0101180532 0.2571310363
-0.0177887196 -0.0165462496 0.2746310879
-0.0292347858 -0.0089932469 0.2582334958
-0.0202555579 -0.0224238572 0.2426798238
-0.0149226334 -0.0105867717 0.3067786515
-0.0247639045 -0.0231311950 0.2232563964
-0.0269548215 -0.0278812282 0.1838626044
-0.0126966005 0.0302795343 0.3674488338
-0.0198844221 0.0330286425 0.2745126453
-0.0276836549 -0.0236143481 0.2073637967
-0.0036043011 -0.0000571394 0.3704194381
-0.0135084844 0.0343802188 0.3147283782
-0.0127787586 0.0333950760 0.3322777849
-0.0028848474 -0.0004842437 0.3690671365
-0.0021639092 -0.0218515532 0.2753725627
-0.0166891564 0.0367498855 0.2596161916
-0.0336262984 -0.0220786488 0.1487826803
-0.0295389567 -0.0274058575 0.0020565666
-0.0238160271 -0.0320852102 -0.0464601093
-0.0200791635 -0.0347892989 0.0452186480
-0.0349886656 -0.0091592586 0.2190907700
-0.0239062279 -0.0320160030 -0.0823148052
-0.0131022052 -0.0376792483 -0.0128530131
0.0009182638 -0.0055567495 0.3493633197
0.0086020845 -0.0258987226 0.2529449568
-0.0073086497 0.0382944283 0.2949210336
-0.0379168702 -0.0048061804 0.2025749886
-0.0374957634 -0.0148101752 0.1052187161
-0.0360749847 -0.0182397495 0.1232922559
-0.0356591212 -0.0192435898 0.1705434162
-0.0082859790 -0.0389946671 0.0086075063
-0.0083602968 -0.0386022326 0.1747411971
-0.0149404605 0.0382251890 0.2198118636
-0.0395562234 -0.0035041247 0.1830904832
-0.0366423320 -0.0029095070 0.2204654942
-0.0390783951 -0.0109899091 0.0658085056
-0.0360715638 -0.0182480073 -0.0961150120
-0.0077427741 -0.0390661901 -0.0941208539
0.0111710002 -0.0252288723 0.2514170811
0.0122916021 -0.0160491655 0.2893694094
-0.0162320762 0.0378072251 0.1978510556
-0.0398825559 -0.0074466585 0.0471107646
-0.0402129914 -0.0049388617 0.1353224754
-0.0237027723 -0.0321721058 -0.1305878093
0.0024010962 -0.0397381837 0.0639659194
0.0095017665 -0.0388021897 0.1718739601
0.0091508147 -0.0343919139 0.2053598874
-0.0402180982 -0.0049001049 0.0299534799
-0.0408222061 -0.0003153079 0.1178758034
-0.0405573044 -0.0023257442 -0.1052696888
-0.0082169986 -0.0390037497 -0.1129905016
-0.0000342795 0.0416133397 0.2179286056
-0.0003599760 0.0415892706 0.1728658786
-0.0148111459 0.0385223807 0.0723976807
-0.0192784324 0.0366719710 0.1334558986
-0.0209715110 0.0358186855 0.0518602813
-0.0272309211 0.0310161066 0.1627363456
-0.0217384791 0.0352302236 0.0512152443
-0.0267574878 0.0307137776 0.2119144147
-0.0409109987 0.0003585718 -0.0820374819
0.0160135704 -0.0363747391 0.0853612482
0.0159441155 -0.0364035083 0.1032908527
0.0177660588 -0.0336446775 0.1863944200
0.0244402210 -0.0257020138 0.2100826161
0.0045737410 0.0410031437 0.2176076540
0.0017604254 0.0413735460 0.1939765259
-0.0002782330 0.0416000336 0.0660413072
-0.0044970839 0.0410445438 0.1714259891
-0.0096095895 0.0403713879 0.1532948113
-0.0160414521 0.0380127714 0.0298472837
-0.0108303405 0.0401712835 0.0292924727
-0.0263637622 0.0316814408 -0.0342992991
-0.0298055298 0.0280574339 0.1850679910
-0.0405834409 -0.0021273845 -0.1317718683
0.0265228735 -0.0277209833 0.1859237209
0.0202571110 -0.0019141347 0.3188221830
0.0238929449 -0.0034937848 0.2981492525
0.0064448149 0.0331715598 0.3799216284
0.0118916732 0.0388120210 0.2569012124
-0.0088394960 0.0404727849 -0.0327852891
0.0087725760 0.0404502590 -0.0464003089
0.0063589280 0.0407680605 0.0044284014
0.0062390973 0.0407838384 0.0020074260
0.0070964022 0.0406709583 -0.0289670865
0.0046263448 0.0409961871 0.0226957368
-0.0140811259 0.0388247648 -0.0711735972
-0.0399065212 0.0088098654 -0.0186709289
-0.0400079955 0.0080404014 0.0529416706
0.0263974505 -0.0299219864 -0.0036423247
0.0243650848 -0.0314813345 0.0224972746
0.0218101397 -0.0334416357 0.1214942255
0.0104499107 -0.0386784083 -0.1188663455
0.0251124301 -0.0309079282 0.1591694405
0.0152386539 0.0379005580 0.2345205470
0.0090902404 0.0404084326 0.1242984480
0.0089535113 0.0404264355 0.1555686387
0.0027643582 0.0412413521 -0.0753112807
-0.0335540619 0.0237237981 0.0346485964
-0.0301870956 0.0281121105 -0.0683267196
-0.0397548323 0.0099600987 0.1353643930
-0.0399340391 0.0086012011 0.0715133935
0.0225294629 -0.0328897295 -0.0804391873
0.0357303290 -0.0180198631 0.1738563000
0.0202392911 0.0047628818 0.3380434970
0.0115120923 0.0397903099 0.1585585092
-0.0276529192 0.0306923255 -0.1410942813
-0.0403162086 0.0057049789 0.1694345291
0.0360978236 -0.0121882446 0.1945645775
0.0358436079 -0.0182216987 0.0618119696
0.0362074826 -0.0173435684 0.1706658689
0.0269581456 -0.0042774007 0.2802712361
0.0177965060 0.0371872220 0.0636840080
0.0196307177 0.0364274671 0.0812020312
-0.0105131915 0.0402524119 -0.1249547410
0.0359895284 -0.0070337809 0.2165589259
0.0390635746 -0.0104510277 0.1531798680
0.0285357361 0.0127601581 0.2919408712
0.0238001061 0.0334658181 -0.0237343392
0.0223912423 0.0345467793 0.0011738222
-0.0077216509 0.0406199699 -0.1480615217
0.0249549114 -0.0310287856 -0.1292615719
0.0138596483 0.0212713251 0.3949170011
0.0240472630 0.0332761851 0.1421155272
0.0248917382 0.0326282553 0.1197004398
0.0209123878 0.0356814414 -0.0985078183
0.0160793406 0.0378984948 -0.1223372717
0.0402780458 -0.0026234288 0.0597320750
0.0403902949 -0.0017696887 -0.0603471100
0.0406095246 -0.0001022796 0.1276992308
0.0355970147 -0.0188167965 -0.1364848698
0.0300247671 0.0181587094 0.2719085706
0.0300824050 0.0177999278 0.2727181850
0.0174352155 0.0303414691 0.3234995461
0.0215367647 0.0310717392 0.2800653184
0.0291043084 0.0268920419 0.2236368903
0.0404116798 0.0031557460 -0.0038905586
0.0402334848 0.0045091807 0.0204317761
0.0257464000 0.0287616464 0.2573566737
0.0347166238 0.0218971902 0.1102607076
0.0338140842 0.0230736903 -0.0308905768
0.0405150366 -0.0008209328 -0.1402841712
0.0344810763 0.0222042367 -0.0837528301
-0.0360567369 0.0198357918 -0.0858332232
0.0399631976 0.0065620791 0.0908937922
0.0403070562 0.0039544813 -0.1176244959
0.0395973392 0.0093421682 0.1602239279
0.0359856809 0.0086432373 0.2296546780
-0.0361636107 0.0195783629 -0.0455417194
-0.0383141497 0.0143858472 -0.1473477695
0.0394967535 0.0101130573 0.1409459556
-0.0364094926 0.0189862527 -0.0300912495
-0.0378451344 0.0155176223 0.1685657771
0.0393784236 0.0110175477 -0.0480542656
0.0362236235 0.0188557045 0.0275001525
-0.0388582983 0.0130701173 0.0463174852
0.0369251418 0.0171620046 -0.1273445442
0.0382961273 0.0138526617 0.0692489720
0.0376469240 0.0154200387 -0.0149528367
