-0.0096543634 -0.0390181571 -0.2443910694
0.0094874607 -0.0376128012 -0.2393719050
-0.0067370003 -0.0646880455 -0.2427974608
-0.0078817803 -0.0551226485 -0.2420262687
-0.0014995348 -0.0337492136 -0.2404321804
0.0009559002 -0.0583731106 -0.2311497966
0.0029435384 -0.0631954305 -0.2312302727
0.0030834379 -0.0613510195 -0.2339331756
0.0011669356 -0.0207371315 -0.2557066006
0.0737479522 -0.0558502220 0.0122872695
0.0757439558 -0.0642376977 0.0166355768
0.0758095881 -0.0543427754 0.0020140638
0.0669597160 -0.0514859355 0.0208123712
0.0498468309 -0.0553232765 0.0000418311
0.0586180016 -0.0653315097 0.0166023130
0.0540566920 -0.0676332170 0.0030447071
0.0586180016 -0.0498191202 0.0087101177
0.0522732571 -0.0636960539 0.0147805227
0.0623323418 -0.0265344007 0.0098576797
0.0642453848 -0.0603137303 0.0113275459
0.0748898866 -0.0191065559 0.0414805968
0.0729694462 -0.0221889872 0.0449224711
0.1294018774 -0.0172248277 0.0441130642
0.1294805052 -0.0141222629 0.0388121901
0.1964503934 -0.0080778453 0.0937600731
0.0893282613 -0.0152873587 0.0519979186
0.0434750495 -0.0190771736 0.0513484303
0.2148825849 -0.0054464435 0.0758632172
0.1575855951 -0.0097810416 0.0632824098
0.2106210463 -0.0061583512 0.0730479744
0.1265285383 -0.0143822072 0.0440518631
0.0672590201 -0.0197275936 0.0361926200
0.2503044710 -0.0017209943 0.0899067479
0.0602900460 -0.0137721905 0.0361408320
0.1309542344 -0.0106172018 0.0594145094
0.1041030225 -0.0101447935 0.0371598619
0.0631130137 -0.0220033298 0.0269201272
0.2352795925 -0.0048244327 0.0765789512
0.0412593706 -0.0132281901 0.0221288516
0.2862305359 0.0016570558 0.1021897187
0.0353943390 -0.0131184371 0.0172351860
0.1213533197 -0.0176650317 0.0279930459
0.2802154260 0.0026972805 0.0966461250
0.0601134138 -0.0114674770 0.0199725755
0.2528143552 -0.0044258680 0.0748797006
0.0751042874 -0.0101903934 0.0170043544
0.1606946682 -0.0141072460 0.0392291745
0.2524458282 -0.0047634312 0.0725551934
0.0504458822 -0.0110378998 0.0018573819
0.2399581481 -0.0064511143 0.0645039108
0.0932175151 -0.0087147234 0.0132402039
0.2041742195 -0.0103638286 0.0485544032
0.2549904339 0.0024638455 0.0761062140
0.1803508824 -0.0029765928 0.0464524307
0.1456821863 -0.0168517516 0.0203862114
0.0624401642 -0.0264895989 -0.0013162321
0.1525997665 -0.0047110849 0.0313782230
0.1027761041 -0.0215913982 0.0014409544
0.0488941807 -0.0285841015 -0.0130789631
0.1982660668 -0.0106676556 0.0374809115
0.0729844113 -0.0096363886 -0.0134656203
0.1042198434 -0.0210043901 -0.0023310997
0.0992528201 -0.0084076052 -0.0067299759
0.0582534075 -0.0268275512 -0.0213106734
0.2249866121 -0.0056307992 0.0402274053
0.0544379521 -0.0110597568 -0.0300114457
0.1808899189 -0.0028678121 0.0303088885
0.1183521710 -0.0182291488 -0.0043319055
0.1076567029 -0.0083426637 -0.0089258848
0.0487024921 -0.0235273966 -0.0472309039
0.1682196386 -0.0042008445 0.0180713240
0.2676948584 0.0007851229 0.0596628327
0.1210641486 -0.0077558116 -0.0059352497
0.0493813307 -0.0190401195 -0.0516569000
0.0412722984 -0.0144304140 -0.0522451355
0.0938471734 -0.0121182376 -0.0265227100
0.1018273095 -0.0132668185 0.0550258163
0.1274265381 -0.0134430894 0.0482356419
0.1450914952 -0.0109839821 0.0588199643
0.1087550618 -0.0128816541 0.0561885551
0.1014556042 -0.0127249288 0.0512961249
0.1763498640 -0.0077262774 0.0718433049
0.1999172902 -0.0075616825 0.0677211245
0.1934081693 -0.0055683247 0.0781643015
0.0445975764 -0.0215053038 0.0357180121
0.1482870072 -0.0082851568 0.0590120744
0.1938674113 -0.0043278935 0.0710125322
0.1403406516 -0.0143358664 0.0428624091
0.0496375948 -0.0127518168 0.0236983597
0.0796571434 -0.0214469664 0.0231253178
0.0812060960 -0.0104957109 0.0269654168
0.2172009600 -0.0075649895 0.0649978991
0.2501350548 -0.0039395174 0.0786321319
0.2113210273 -0.0023521996 0.0728453805
0.0313699467 -0.0128161893 0.0075466693
0.2819166012 -0.0012596087 0.0869458939
0.0386113586 -0.0118446973 0.0007176900
0.1443296438 -0.0159124065 0.0322999362
0.3019220344 0.0327514320 0.1126449413
0.1036033087 -0.0084048599 0.0209184028
0.2997772421 0.0216791953 0.1060863464
0.1040640071 -0.0080497553 0.0147313381
0.1144102528 -0.0202424401 0.0071979156
0.3062958544 0.0548775717 0.1244246587
0.0288699469 -0.0119652781 -0.0170727923
0.1550588138 -0.0047194230 0.0362158306
0.2538473655 -0.0051068494 0.0664357045
0.2562357783 0.0024983135 0.0714702604
0.2943299692 0.0075238969 0.0951241602
0.1521593885 -0.0046434076 0.0276314179
0.3000815362 0.0323637706 0.1062124374
0.0857505213 -0.0238826836 -0.0022602758
0.3011281025 0.0261511945 0.0970412305
0.0699168835 -0.0095727469 -0.0091983419
0.1092862247 -0.0202779629 -0.0013161685
0.0642665620 -0.0103670750 -0.0233066548
0.0329085944 -0.0297922872 -0.0190321690
0.1649513624 -0.0135895380 0.0181576816
0.2278197340 -0.0046600805 0.0407340297
0.1956341287 -0.0018613688 0.0364468548
0.0394127771 -0.0288635405 -0.0288255190
0.0943599328 -0.0194731045 -0.0213272748
0.0309580083 -0.0290608142 -0.0378891294
0.0499942754 -0.0263583862 -0.0358630433
0.1168991455 -0.0075079662 -0.0018898629
0.0793071714 -0.0180784107 -0.0344239276
0.0518165920 -0.0119808647 -0.0400092884
0.1552770858 -0.0063617672 0.0063788747
0.0834361711 -0.0148808535 -0.0333797465
0.2959652994 0.0048079089 0.0990926081
0.3027567973 0.0417354450 0.1175114071
0.2982122140 0.0130101703 0.0877781135
0.2984394843 0.0258917505 0.0970103394
0.0877124441 -0.0345578830 -0.0150983129
0.0878328005 -0.0432096060 -0.0318185577
0.0930673164 -0.0462224231 -0.0320922609
0.1028432319 -0.0414199504 -0.0229025263
0.0795171637 -0.0313139042 -0.0406374306
0.0774078690 -0.0293205797 -0.0504112988
0.0854954482 -0.0250690593 -0.0436552102
0.0773353032 -0.0307381305 -0.0778960244
0.0900716267 -0.0304277965 -0.0128010013
0.0893566632 -0.0285060056 -0.0242833155
0.0944767192 -0.0188224203 -0.0495395185
0.0985634471 -0.0191173588 -0.0552489204
0.0928872697 -0.0157579397 -0.0597634344
0.0909978770 -0.0494787527 -0.0433805080
0.0825320593 -0.0491296059 -0.0785468148
0.1035450780 -0.0205709509 -0.0533733775
0.0938420676 -0.0524299468 -0.0553977108
0.0887743539 -0.0539796211 -0.0697398585
0.1066202860 -0.0213639830 -0.0422955465
0.0978662553 -0.0520964637 -0.0421701912
0.1019583882 -0.0438506696 -0.0305186266
0.1017989661 -0.0540408729 -0.0516257338
0.0997552116 -0.0210273184 -0.0765046680
0.1064962026 -0.0322494311 -0.0273144093
0.1088257441 -0.0500257453 -0.0705170416
0.1028311576 -0.0429351979 -0.0210036871
0.1083244265 -0.0457034323 -0.0521587979
0.1024592781 -0.0410017907 -0.0134010026
0.1035229137 -0.0398110641 -0.0145427987
0.1103664835 -0.0393427363 -0.0819648239
0.0786062858 -0.0250446335 -0.0651340539
0.0777789071 -0.0429128839 -0.0728821277
0.0969561468 -0.0187573846 -0.0375413810
0.0893695557 -0.0536492327 -0.0477711748
0.1035216608 -0.0190155221 -0.0792639369
0.1136527899 -0.0281535977 -0.0540754312
0.1132047266 -0.0460202166 -0.0615985383
0.1148100322 -0.0390176678 -0.0699464940
0.0795078059 -0.0392757750 -0.0532077519
0.0888004754 -0.0324100863 -0.0197068448
0.0940750318 -0.0328451763 -0.0032586693
0.1011099962 -0.0195300619 -0.0564095240
0.0962074058 -0.0484625108 -0.0343531907
0.1026159778 -0.0387832486 -0.0203244477
0.1075525716 -0.0432419998 -0.0412712148
0.1016472650 -0.0248628363 -0.0755439997
0.0970219970 -0.0227491969 -0.0475429243
0.0941509977 -0.0259682765 0.0385184292
0.0941509977 -0.0227558719 0.0014822694
0.0941509977 -0.0201931282 -0.0442669704
0.0970219970 -0.0203921216 0.0459409045
0.0970219970 -0.0249988499 -0.0336853865
0.0941509977 -0.0230714065 -0.0115766558
0.0941509977 -0.0219069965 -0.0428025245
0.0376115509 0.0248994463 0.3393832287
0.0112109920 0.0244105804 0.3385255887
0.0283285167 0.0265395440 0.3513910316
0.0242858001 0.0261377552 0.3604478647
0.0197445682 0.0256288919 0.3660870893
0.0311861197 0.0265793315 0.3785504387
0.0391595086 0.0260712319 0.3947991375
0.0132159294 0.0222861508 0.3895910253
0.1090784177 0.0350327281 0.4147924040
0.0477727545 0.0282683510 0.3579132579
0.0653961521 0.0297463961 0.3628989847
0.0780980327 0.0320149093 0.3820100194
0.0299560082 0.0267518274 0.3665468003
0.0347760182 0.0272833484 0.3658553481
0.1101686184 0.0352201148 0.4142936615
0.0244738511 0.0231090604 0.3990357594
0.0365575948 0.0254276849 0.3965905623
0.1160868273 0.0354155462 0.4122061055
0.0379291059 0.0219888650 0.3444670453
0.0572533210 0.0240635353 0.3685401750
0.0938072736 0.0300579045 0.3947525858
0.0254254025 0.0188323718 0.3534693015
0.0231044619 0.0184803663 0.3695918621
0.0605480972 0.0251164007 0.3946550219
0.0471362393 0.0251202740 0.4077340876
0.0245569022 0.0211106441 0.3931304348
0.1121872850 0.0340318611 0.4247708069
0.0121200057 0.0169134670 0.3390347914
0.0841889676 0.0286817197 0.3816080060
0.0988942729 0.0308932584 0.3997345521
0.0715031461 0.0263984102 0.3848165522
0.0715050674 0.0265033706 0.3937045389
0.0555957843 0.0246941988 0.3961574150
0.0135552814 0.0184329977 0.3796145484
0.0260266819 0.0218361575 0.3981875442
-0.0759281728 -0.0531143987 0.0072385477
-0.0757020389 -0.0693627960 0.0072328234
-0.0671110004 -0.0685339101 0.0171645050
-0.0695361795 -0.0465911453 0.0081749363
-0.0671110004 -0.0643906680 0.0110055533
-0.0588590018 -0.0560419976 0.0136342338
-0.0564851162 -0.0469633278 0.0157485697
-0.0588590018 -0.0629569279 0.0067919510
-0.0514601748 -0.0579385236 0.0086711533
-0.0612492690 -0.0443493055 0.0120689782
-0.0635141516 -0.0407519849 0.0097876744
-0.0749315110 -0.0192614551 0.0585669510
-0.0727906262 -0.0199239989 0.0637595036
-0.1315220120 -0.0113072841 0.0610690005
-0.1316302910 -0.0111213075 0.0585503705
-0.1954279875 -0.0085766743 0.0666641930
-0.1958736977 -0.0117106493 0.0674312877
-0.0503870440 -0.0191657084 0.0470109298
-0.0392420449 -0.0178125018 0.0514331314
-0.1721771644 -0.0081741968 0.0700943257
-0.0421532754 -0.0203484324 0.0434988711
-0.2269290760 -0.0046671549 0.0782238163
-0.1690202098 -0.0103116139 0.0583403613
-0.1423152541 -0.0101852559 0.0655773670
-0.0725540481 -0.0196007145 0.0349890627
-0.1689816941 -0.0066542078 0.0652676882
-0.1759133380 -0.0054303755 0.0633592273
-0.2009510132 -0.0077928123 0.0665538647
-0.0342176277 -0.0140971378 0.0232574338
-0.0519117778 -0.0231331526 0.0255645265
-0.2129127802 -0.0027049335 0.0760230774
-0.0708471643 -0.0222249228 0.0228137705
-0.0766737618 -0.0102970405 0.0198916164
-0.2291522983 -0.0004232772 0.0750670347
-0.1800558026 -0.0114634041 0.0507992159
-0.0946688235 -0.0093141843 0.0243906548
-0.2248691604 -0.0073230316 0.0644326386
-0.0841465307 -0.0095267529 0.0166796601
-0.1317090939 -0.0178246194 0.0233447052
-0.2009423373 -0.0104649161 0.0506893184
-0.1605349450 -0.0044249600 0.0424545917
-0.2686398842 -0.0034079222 0.0756249743
-0.0379562274 -0.0114170633 -0.0127574168
-0.1304132957 -0.0063802102 0.0251228519
-0.1162953590 -0.0198992889 0.0116589265
-0.0331124660 -0.0116597677 -0.0180687273
-0.1049650749 -0.0213430603 0.0060924040
-0.1170197586 -0.0071726321 0.0164260431
-0.0437752416 -0.0272748733 0.0040843539
-0.1002593211 -0.0218379379 -0.0007229124
-0.0646199267 -0.0100185297 -0.0150777539
-0.1746621318 -0.0131613801 0.0262049405
-0.0436977457 -0.0118895870 -0.0377761045
-0.1399685781 -0.0054743354 0.0178460765
-0.0398179264 -0.0121780865 -0.0403146789
-0.1462634884 -0.0051850323 0.0172349743
-0.1577973219 -0.0127996089 0.0088794661
-0.1273016616 -0.0175997889 0.0009089757
-0.0949167103 -0.0091647277 -0.0160864522
-0.1529598277 -0.0138746689 0.0084490737
-0.1349127206 -0.0062822990 0.0059826431
-0.0844022041 -0.0202079104 -0.0277000439
-0.0953856444 -0.0212543429 -0.0135294129
-0.1561311991 -0.0051329529 0.0117679300
-0.0493882981 -0.0137863953 -0.0473945809
-0.1858163983 -0.0045338972 0.0202164438
-0.0629595360 -0.0165365127 -0.0445457106
-0.1045256656 -0.0134317943 0.0569351242
-0.0805522712 -0.0137870727 0.0469515885
-0.0544526673 -0.0155896598 0.0448904606
-0.2209131410 -0.0046911437 0.0787612975
-0.1069288178 -0.0118092768 0.0485886001
-0.0324476150 -0.0183505442 0.0513520739
-0.0784200007 -0.0122636895 0.0360055473
-0.1723695649 -0.0070410934 0.0702487693
-0.0396897031 -0.0208171434 0.0405803401
-0.2104490149 -0.0032706532 0.0774864573
-0.2374230931 -0.0025999125 0.0880977053
-0.0508552700 -0.0133510908 0.0281820001
-0.1622141506 -0.0122665541 0.0500991877
-0.0697186798 -0.0113316915 0.0257048015
-0.2115225041 -0.0026207521 0.0744277522
-0.0651394748 -0.0113356873 0.0230568937
-0.0332899772 -0.0130533443 0.0135412996
-0.2367911767 -0.0050557125 0.0752257023
-0.2407777995 -0.0052794576 0.0730130492
-0.2220664604 -0.0006858723 0.0710849944
-0.2300824133 -0.0069293845 0.0653240162
-0.0380769724 -0.0116604036 -0.0044294392
-0.1702313353 -0.0134661548 0.0404323832
-0.0852344351 -0.0223021589 0.0150914507
-0.1631028423 -0.0043059189 0.0444005831
-0.3067758001 0.0521081021 0.1195110253
-0.2386736168 0.0013226559 0.0704883375
-0.1362290199 -0.0062090826 0.0318258205
-0.3026947664 0.0380428702 0.1190470411
-0.1304912273 -0.0185097218 0.0142500226
-0.1096340118 -0.0076749571 0.0138872210
-0.0728262015 -0.0252585244 0.0010222696
-0.1336240772 -0.0059533701 0.0205138454
-0.1419413799 -0.0172097596 0.0179238220
-0.3064175781 0.0575432126 0.1201528416
-0.0313789208 -0.0120355408 -0.0318651494
-0.1463845278 -0.0050349489 0.0237729548
-0.2117552976 -0.0092928280 0.0438878642
-0.0319409583 -0.0123882830 -0.0405533146
-0.2999152733 0.0310599327 0.1020131382
-0.0394612434 -0.0292215903 -0.0246772456
-0.1641370705 -0.0040119886 0.0235958952
-0.2985691395 0.0252818681 0.0957611039
-0.2881667422 -0.0001642379 0.0726948271
-0.0700422381 -0.0251056118 -0.0199627001
-0.0838164450 -0.0210203466 -0.0256669487
-0.1707561474 -0.0091078761 0.0115359883
-0.1729782227 -0.0036083519 0.0234454252
-0.0494404901 -0.0219599121 -0.0492484917
-0.0818355061 -0.0101452727 -0.0245622973
-0.2560336212 0.0011047673 0.0552522487
-0.0798710975 -0.0158585788 -0.0354418962
-0.0419710535 -0.0259878264 -0.0450031412
-0.0489484459 -0.0170627246 -0.0519323657
-0.2980167950 0.0195372884 0.1091709661
-0.3016296176 0.0377970087 0.1097285537
-0.2983338674 0.0238714019 0.0919965261
-0.0797938281 -0.0396729566 -0.0379808311
-0.0914011606 -0.0261363609 -0.0304464730
-0.0900788718 -0.0448109211 -0.0318583190
-0.1003300654 -0.0515910079 -0.0382177012
-0.1081411347 -0.0472253565 -0.0480714678
-0.0843600393 -0.0320550775 -0.0303486444
-0.0869221696 -0.0215076790 -0.0444291872
-0.0890009375 -0.0306434600 -0.0182548892
-0.0871268467 -0.0365151306 -0.0197803397
-0.0868346211 -0.0299340083 -0.0315331187
-0.0921005429 -0.0364098267 -0.0055109448
-0.0932326333 -0.0266265440 -0.0235188848
-0.0950636110 -0.0285578442 -0.0103267880
-0.0981020127 -0.0173858915 -0.0438284300
-0.0812313645 -0.0313744692 -0.0762825821
-0.0919655056 -0.0518611641 -0.0414544859
-0.1046441339 -0.0222979613 -0.0510001366
-0.0809371179 -0.0385089844 -0.0818138250
-0.0947039917 -0.0447380760 -0.0156464834
-0.1112249635 -0.0255696273 -0.0435613590
-0.0965858787 -0.0205163593 -0.0828634483
-0.1007272782 -0.0540722425 -0.0466398875
-0.1053822088 -0.0360942481 -0.0273473338
-0.1030938408 -0.0223106884 -0.0844518961
-0.1157418445 -0.0338546757 -0.0584920222
-0.0989332245 -0.0413938668 -0.0755439997
-0.1059374632 -0.0501806553 -0.0821864964
-0.1113677812 -0.0467392270 -0.0486449407
-0.1108021956 -0.0429727476 -0.0435681411
-0.1115115271 -0.0413657091 -0.0859578517
-0.0760396603 -0.0349203034 -0.0556328586
-0.0811741138 -0.0449982534 -0.0390002060
-0.0777672625 -0.0408537329 -0.0783762014
-0.0954507438 -0.0182134360 -0.0833154698
-0.0908037740 -0.0553953814 -0.0608532358
-0.1118952608 -0.0238341765 -0.0649926874
-0.1132125304 -0.0276403397 -0.0737636032
-0.1122280967 -0.0464803744 -0.0689550019
-0.0797270195 -0.0343266937 -0.0517939196
-0.0825739013 -0.0412506557 -0.0427076489
-0.0982375537 -0.0222151457 -0.0390282779
-0.0916181024 -0.0452487984 -0.0224714514
-0.1006954334 -0.0294097942 -0.0095045172
-0.1061196444 -0.0309032940 -0.0270349922
-0.1103491351 -0.0354387551 -0.0429871947
-0.0918529383 -0.0343945444 -0.0755439997
-0.0972599983 -0.0233186543 0.0205334439
-0.0972599983 -0.0291103676 0.0007790222
-0.0943889990 -0.0286236631 0.0052300297
-0.0972599983 -0.0206900226 -0.0665862784
-0.0964356053 -0.0213483898 0.0455476611
-0.0965076555 -0.0166688362 0.0455885918
-0.0948142556 -0.0302230562 0.0014522073
-0.0959937195 -0.0192246128 -0.0718012509
-0.0943889990 -0.0159943183 -0.0534171625
-0.0440945933 0.0274242606 0.3509125857
-0.1107825297 0.0346709217 0.3914714327
-0.0788831797 0.0320744039 0.3846664779
-0.0142712961 0.0250120334 0.3588938317
-0.0409642336 0.0277625757 0.3810014657
-0.0792564129 0.0301075866 0.4183939476
-0.0291391022 0.0251158997 0.3879937885
-0.0604073878 0.0292290552 0.3982060176
-0.0153972492 0.0235520799 0.3272123132
-0.0707879159 0.0306709567 0.3699835204
-0.1127105138 0.0357047637 0.4079377652
-0.0469482841 0.0285792260 0.3765427651
-0.0715429377 0.0312690031 0.3867976932
-0.1148260634 0.0354865883 0.4194029258
-0.0102343865 0.0205631894 0.3999295550
-0.0103893722 0.0206293489 0.3995789380
-0.0831877929 0.0318325476 0.4079915101
-0.0529531710 0.0235138863 0.3630618951
-0.0255693722 0.0195970823 0.3408537363
-0.0108424563 0.0167457595 0.3638082979
-0.0207360960 0.0180203543 0.3483270228
-0.0451421326 0.0220364567 0.3701795613
-0.0201896888 0.0188731523 0.3776002940
-0.0123981689 0.0197568583 0.3926071760
-0.0384310408 0.0226065664 0.3937676250
-0.0923810945 0.0307843482 0.4161751086
-0.0578664753 0.0247761107 0.3607792883
-0.0100103866 0.0200912772 0.3701376924
-0.1019661416 0.0313586177 0.4011420521
-0.0326293178 0.0199734060 0.3565191103
-0.0795589782 0.0276892707 0.3945174252
-0.0098044411 0.0184901328 0.3770495741
-0.0125458597 0.0184532416 0.3809454004
-0.0460113440 0.0252351673 0.4100090756
-0.1080679593 0.0328705990 0.4162782287
0.0398088068 -0.0164342265 0.0275654992
0.0356522275 -0.0357394739 0.0494500851
0.0416316230 -0.0265827583 0.0030786745
0.0362462993 -0.0068626429 0.0616969791
0.0263374120 -0.0368495738 0.0738646851
0.0406083108 -0.0313160914 -0.0291684162
0.0410018397 -0.0182634933 -0.0554875445
0.0312626706 -0.0218637291 0.1452919617
0.0261386834 -0.0299372925 0.1409111038
0.0403879380 -0.0329929956 0.0039226041
0.0328333193 -0.0158596840 -0.1020741992
0.0326555359 -0.0138722787 0.1183133294
0.0361575312 -0.0359193320 -0.0566592447
0.0174126174 -0.0427664297 0.0344752476
0.0349754629 -0.0073872350 0.0792120978
0.0132965168 -0.0333702990 0.1433603065
0.0287787548 -0.0404345783 -0.0133758921
0.0259537812 -0.0392835225 -0.0721323779
0.0253547007 -0.0335857585 -0.0952851457
0.0029930203 -0.0418353858 0.0559834762
0.0186265489 -0.0421136179 -0.0329598832
0.0138764485 -0.0401288744 -0.0793300078
0.0101427689 -0.0421651995 -0.0606639868
0.0065011160 -0.0357773867 -0.1030630964
-0.0025724759 -0.0351215541 0.1315776550
-0.0019105344 -0.0435079193 -0.0253994721
-0.0098332568 -0.0423815470 0.0497670835
-0.0014457296 -0.0406913816 -0.0783740524
-0.0184040535 -0.0406802487 0.0557055812
-0.0140360686 -0.0414732307 -0.0732711805
-0.0125223711 -0.0339869764 0.1388840869
-0.0190889352 -0.0423542583 0.0362244205
-0.0217310206 -0.0425941310 -0.0068998276
-0.0209791660 -0.0298620719 0.1619959019
-0.0324932071 -0.0400182981 0.0104930604
-0.0260764203 -0.0291730234 0.1496130865
-0.0340262829 -0.0376223294 0.0384326508
-0.0278063671 -0.0305722319 -0.1031805635
-0.0399781449 -0.0333883047 -0.0212582481
-0.0353272860 -0.0264187865 0.0985002189
-0.0368331046 -0.0270923481 0.0811185910
-0.0351636109 -0.0228606391 0.1014601923
-0.0328955179 -0.0211541859 0.1290075815
-0.0413567002 -0.0211257732 0.0070388147
-0.0412874197 -0.0213041019 -0.0748579886
-0.0319504665 -0.0152796624 0.1334316403
-0.0406133487 -0.0120301299 -0.0430684611
-0.0371828135 -0.0103794903 0.0581456669
-0.0326593511 -0.0058321335 0.1113813638
0.0396690843 -0.0111556475 0.0221796234
0.0339737249 -0.0358011349 0.0551961823
0.0406549955 -0.0165260783 -0.0130233013
0.0359877053 -0.0113651272 0.0713059638
0.0262290615 -0.0369338258 0.0734546236
0.0412528346 -0.0297147054 -0.0391855025
0.0401722643 -0.0115534088 -0.0210270748
0.0355189691 -0.0123067276 0.0787515824
0.0271158134 -0.0316420726 0.1209200376
0.0401495320 -0.0331443780 -0.0039538682
0.0322640791 -0.0164812666 -0.1043470470
0.0309835766 -0.0119362471 0.1375562207
0.0113348698 -0.0403510430 0.0726555752
0.0173399411 -0.0434066023 0.0276862700
0.0333619637 -0.0135291866 0.1086131613
0.0150444811 -0.0319572256 0.1550326736
0.0334479338 -0.0367327877 -0.0629537314
0.0185013903 -0.0432695830 -0.0031952331
0.0207048168 -0.0329691509 -0.1053708722
0.0002882939 -0.0406036738 0.0700036320
0.0167685660 -0.0422499271 -0.0382943738
0.0166230419 -0.0336604768 -0.1062568916
0.0108632287 -0.0437683868 -0.0185586855
0.0148606352 -0.0353316593 -0.1002673198
-0.0016936339 -0.0339770545 0.1444176023
-0.0020791500 -0.0427045348 -0.0464991558
-0.0091088657 -0.0425592797 0.0477439042
-0.0004752979 -0.0398847312 -0.0824268500
-0.0143078849 -0.0418602679 0.0510355900
-0.0165356574 -0.0416361789 -0.0569978794
-0.0101253919 -0.0347635685 0.1352701379
-0.0213368394 -0.0393247127 0.0645777988
-0.0217425635 -0.0431646701 0.0081442414
-0.0208909659 -0.0321891160 0.1400103034
-0.0271260950 -0.0401728579 -0.0402398085
-0.0258220840 -0.0369001929 0.0764505382
-0.0356479447 -0.0385618481 0.0231548067
-0.0304665852 -0.0339529660 -0.0869012097
-0.0381948768 -0.0354523878 0.0312373423
-0.0297674404 -0.0239940330 0.1581921629
-0.0403724277 -0.0270388842 -0.0786726431
-0.0300302464 -0.0206222573 0.1640441823
-0.0343696256 -0.0197079546 0.1077854755
-0.0410316226 -0.0181779010 0.0121761973
-0.0384866878 -0.0214455310 -0.0849593241
-0.0292476721 -0.0136875139 0.1666150740
-0.0411487094 -0.0163389577 -0.0658713804
-0.0375308905 -0.0126021641 0.0565783399
-0.0349207610 -0.0145536646 0.0936142672
-0.0026499927 0.0401791699 0.2727691489
0.0012569776 0.0470707055 0.2884435798
-0.0006426202 0.0505163299 0.2915238343
0.0019214932 0.0394113232 0.2603315078
0.0004494890 0.0442406608 0.2598580321
0.0343429111 0.0022221909 0.2458300079
0.0284756379 0.0262001264 0.2488236237
0.0331072340 -0.0062041500 0.2393062175
0.0017376363 -0.0376668690 -0.2584183123
-0.0031150378 -0.0383882011 -0.2447842593
-0.0328406483 -0.0035432411 0.2506368822
-0.0350914227 0.0026829382 0.2416642365
-0.0279875624 0.0273735062 0.2450490337
0.0379803499 0.0146084510 0.1719358857
-0.0403536613 -0.0038725686 -0.1872099126
-0.0402333113 0.0063361201 -0.2021426541
-0.0393049353 -0.0104454245 -0.1988337945
-0.0370294040 0.0174859020 0.1348378785
-0.0369609313 0.0176522579 -0.0378976563
0.0367637464 0.0175514691 -0.1550260369
0.0387362207 0.0127920231 -0.2024152011
0.0397530349 -0.0066147557 -0.1994103577
0.0281835437 0.0301019977 -0.1953382914
0.0386602309 0.0129736035 0.1559017856
0.0382203264 0.0140356685 -0.0180016153
-0.0365181676 0.0159188206 0.1983575353
-0.0072165545 0.0115268134 -0.2735015643
-0.0039550807 0.0240937402 -0.2576558775
-0.0200078860 0.0162328841 -0.2572406549
0.0149027794 0.0135517001 -0.2643633491
-0.0335291515 0.0110039676 -0.2398467038
0.0286318748 0.0196043933 -0.2388388992
0.0374994219 0.0157761541 -0.1368062032
0.0165750577 0.0327261706 -0.2336910385
0.0023455197 0.0398168658 -0.2172176492
0.0209777955 0.0268613025 -0.2418165254
-0.0080530024 0.0405763414 -0.2029984771
0.0089719616 0.0404240062 -0.1541057909
-0.0004801826 0.0415734432 -0.1960217149
-0.0188016956 0.0368694417 -0.1521750210
-0.0290235690 0.0283879281 -0.2125541908
-0.0370202607 0.0141555307 -0.2206115559
-0.0396842719 -0.0079918951 -0.2068537344
-0.0392426912 -0.0102244293 -0.2083670471
0.0325440877 -0.0231781862 -0.1949719873
-0.0246223142 0.0330184619 -0.1815952484
0.0321380211 -0.0226759879 -0.2244622656
0.0244640974 0.0329553192 -0.1723072266
0.0269120181 -0.0295271805 -0.2018360487
-0.0243452552 -0.0312061113 -0.2241256826
0.0159434193 -0.0364037967 -0.1849977561
-0.0311985872 -0.0211697766 -0.2428307217
-0.0317528437 -0.0245204032 -0.1590519568
0.0342396055 0.0225190045 -0.1803832130
0.0268908878 -0.0130431157 -0.2677951841
-0.0250162819 -0.0311643055 -0.1714913134
0.0042357439 -0.0394966184 -0.1960610184
-0.0307452034 -0.0072032332 -0.2597690753
-0.0333505584 0.0239890330 -0.1795589652
0.0252191242 -0.0200150137 -0.2670801892
-0.0186645304 -0.0344419733 -0.2346020054
-0.0006665396 -0.0399974614 -0.2082044824
0.0161721433 -0.0198248106 -0.2990059073
-0.0209538722 -0.0260114657 -0.2708375401
0.0118446871 -0.0165218955 -0.3078342555
-0.0111986249 -0.0351840209 -0.2616002922
-0.0121660178 -0.0045660505 -0.2985223948
-0.0119429576 0.0035612550 -0.2856400777
-0.0067528854 -0.0110668386 -0.3104990993
0.0026305780 -0.0005467797 -0.2994482071
-0.0016849096 -0.0352194526 -0.2829511433
-0.0406459912 -0.0016516850 -0.1712174413
0.0389146197 0.0123614966 -0.1684903951
-0.0040614019 0.0293467119 -0.2504230866
0.0022322994 0.0402995244 -0.2131413286
0.0126276287 0.0392114864 -0.2053048255
-0.0065755972 0.0407708691 -0.1811946382
0.0007570849 0.0415056468 -0.1983707559
-0.0111705907 0.0400303473 -0.1751214775
-0.0198806943 0.0364225060 -0.1533169965
0.0376461160 0.0121556172 -0.2201667731
-0.0317704825 0.0217323995 -0.2270458641
0.0383227084 -0.0037096166 -0.2289486382
0.0360383843 -0.0144255117 -0.2278678375
0.0310524731 -0.0245304536 -0.2206742451
0.0307973645 -0.0254551167 -0.1717220031
0.0335123076 0.0007448023 -0.2501123900
0.0377240979 -0.0136822396 -0.1800755850
-0.0320796976 0.0031838507 -0.2534110717
-0.0365471571 -0.0171007708 -0.2027531883
0.0286762902 -0.0045408321 -0.2632405079
-0.0279108443 -0.0289434304 -0.1614399238
-0.0378151215 -0.0140393987 -0.1741464221
0.0112463935 -0.0383493673 -0.1512970635
-0.0216957328 -0.0321198015 -0.2359629966
0.0055616926 -0.0393220156 -0.2044737953
0.0252316841 -0.0085843733 -0.2725240739
-0.0163369718 -0.0363393647 -0.1733656894
0.0068306018 -0.0391549573 -0.1629313618
-0.0179138620 -0.0203699921 -0.2951599538
-0.0114514138 -0.0383630281 -0.1649723906
-0.0079656614 -0.0390368429 -0.1522915807
-0.0211963315 -0.0127342065 -0.2863234513
-0.0355595990 0.0210352930 -0.1778890785
-0.0146318996 -0.0206270906 -0.3024444996
0.0094998778 0.0087579623 -0.2769179727
0.0132861204 -0.0337226908 -0.2654009005
0.0122187234 -0.0263899881 -0.3011050995
-0.0069073802 -0.0019244250 -0.2996293803
0.0081936368 -0.0325913935 -0.2912281835
0.0402812920 0.0041504189 -0.1658861251
0.0216155331 0.0351419219 -0.1707315629
-0.0399144791 0.0087532665 -0.1746987812
0.0003972940 0.0699266976 0.3104410529
0.0057648347 0.0559957350 0.3191549704
0.0028256137 0.0369826540 0.3028315408
0.0010993745 0.0376694741 0.2900879380
0.0041430447 0.1087659099 0.3641886435
0.0067940459 0.0439073915 0.3256178531
0.0070320474 0.0374332843 0.3339072139
0.0021850628 0.1560836215 0.3998770299
0.0038787546 0.0935844290 0.3791959488
-0.0018999458 0.0370493665 0.3835410220
0.0024280305 0.1259937630 0.3979293142
-0.0057348476 0.0354923589 0.3304809145
-0.0047275134 0.0606595120 0.3131489209
-0.0054753457 0.0425663722 0.3003202516
0.0011333418 0.1301648480 0.4097498053
-0.0029971789 0.1422201742 0.3973397176
-0.0054553436 0.0820069301 0.3595442921
-0.0036977112 0.1250327673 0.3870829511
0.0034381859 0.0744026703 0.3783457502
-0.0000234485 0.1202798840 0.4165487692
0.0006481631 0.0519334378 0.3950692546
-0.0029432852 0.0825750340 0.3860839056
-0.0019596739 0.0568726385 0.3877669091
-0.0033997889 0.0560471534 0.3762022174
-0.0045463562 0.0793964760 0.3726657189
-0.0046994222 0.1010365010 0.3585692113
-0.0004821901 0.1619721083 0.4196882017
-0.0009579663 0.1449550621 0.4163744119
0.0025624050 0.0946651888 0.3352418909
0.0051382428 0.0512906895 0.3087601818
0.0038687507 0.0814120148 0.3299080577
0.0015688177 0.0336558618 0.3645570445
0.0049546017 0.0890633377 0.3496897953
0.0067660063 0.0439429638 0.3381284835
0.0062675413 0.0568249496 0.3333288023
0.0058860297 0.0657366300 0.3472356434
-0.0007784418 0.0688143191 0.3095768141
0.0014050568 0.1598800884 0.3979868456
-0.0041938016 0.0398681017 0.2891989816
0.0044789379 0.0749740771 0.3702646168
-0.0027087113 0.1224241752 0.3615353396
-0.0045177807 0.0733977003 0.3249049631
0.0015998919 0.1425915305 0.4082644559
-0.0067233610 0.0513101935 0.3333037808
-0.0045654118 0.1038587162 0.3722494780
-0.0072873255 0.0376968065 0.3209037256
0.0004571576 0.0858408695 0.4046022140
0.0035348421 0.0686195476 0.3762136305
0.0027228126 0.0706250814 0.3831031394
0.0009864572 0.1590200985 0.4162172421
-0.0009055856 0.0661140948 0.3982756201
-0.0013308054 0.1251612889 0.4088918768
-0.0062739156 0.0450235416 0.3508884731
-0.0044150906 0.1079393597 0.3644124082
-0.0016349776 0.1406853639 0.4096782374
-0.0046447729 0.0912096482 0.3741585951
-0.0075891950 0.0260437646 0.4309044312
0.0035010664 0.0158041562 0.4263020620
0.0094013448 0.0215543813 0.4206263329
-0.0215611072 0.0139690155 0.3456420744
-0.0250778054 0.0091537289 0.3178334296
-0.0296966995 0.0115615783 0.2858702138
-0.0338197125 0.0052774174 0.2551833073
-0.0055309907 0.0164462746 0.4249699330
-0.0180056245 0.0013510640 0.3401278632
-0.0216983445 0.0279813478 0.3028814251
-0.0216617502 -0.0171682667 0.2604712301
-0.0220136192 0.0308176766 0.2796575760
-0.0039806661 0.0086509975 0.4045343640
-0.0061881399 0.0078629381 0.3983429035
-0.0296590763 -0.0157701124 0.2307077439
-0.0006303039 0.0078269388 0.4038424175
-0.0295947525 -0.0198681070 0.2145446409
-0.0051348003 -0.0029746970 0.3577353424
-0.0251260714 -0.0310800687 0.1458118938
-0.0266755260 -0.0298912378 0.1679722888
-0.0070128575 -0.0308282856 0.2286072640
0.0012349167 0.0150163345 0.4259979926
-0.0333567935 -0.0224299061 0.1514097475
-0.0292339563 -0.0278033778 0.0432219406
-0.0283740151 -0.0285880590 0.1396976132
-0.0263011621 -0.0301784714 0.0237752599
-0.0197324856 -0.0349328975 0.0815258749
-0.0154263533 -0.0345240776 0.1877585992
0.0016320263 -0.0171080786 0.2971451104
-0.0377605167 -0.0103046515 0.1880463452
-0.0353228641 -0.0198674414 0.1045608898
-0.0250263219 -0.0311566022 -0.0811874611
-0.0117865457 -0.0382242120 0.1016434582
-0.0086719238 -0.0334989453 0.2127788523
0.0034101331 -0.0203530822 0.2813054855
-0.0119311783 0.0393699865 0.2344317203
-0.0368067514 -0.0164733603 0.0977704052
-0.0376107662 -0.0145325737 0.1678850213
-0.0177704024 -0.0357456186 -0.0828815189
-0.0042514658 -0.0395258855 -0.0358374322
-0.0029545585 -0.0388128827 0.1785065405
-0.0035099112 0.0334136725 0.3952925739
-0.0017120452 0.0332269518 0.4031451602
-0.0385098194 -0.0123623765 0.0814934734
-0.0384426797 -0.0125244429 0.0437387862
-0.0142039098 -0.0372229075 -0.0989264691
-0.0038629439 -0.0395770416 0.1308474550
-0.0083201970 -0.0389901617 -0.0843344909
0.0102913311 -0.0041469229 0.3445793873
0.0030018450 0.0362716452 0.3379200395
0.0006662616 0.0325005417 0.4185960880
-0.0396064068 -0.0095424552 0.0782017428
-0.0397049134 -0.0087948520 0.1390584589
-0.0336273281 -0.0220773068 -0.1298594524
0.0012803145 -0.0398857554 0.0752118457
0.0069380396 -0.0391408112 -0.0299583658
0.0157841680 -0.0288616317 0.2233937610
-0.0117894352 0.0397708491 0.1725158663
-0.0407779352 -0.0006512962 0.0212266826
-0.0403991160 -0.0035262938 -0.0429908178
-0.0185061430 -0.0354408650 -0.1478562204
0.0047004073 -0.0394354369 0.1117213436
0.0029509546 -0.0396657847 -0.0935060144
0.0201829938 -0.0266001479 0.2226191580
0.0042278659 0.0352027569 0.3597580985
-0.0060234130 0.0408435744 0.1766654132
-0.0153476004 0.0383001741 0.1024140191
-0.0208259805 0.0359303449 0.0243867230
-0.0217798580 0.0351984753 -0.0248204263
0.0031143679 0.0292355982 0.4332452196
-0.0409188511 0.0011335259 0.0247191655
-0.0400608578 -0.0060934598 -0.1135509282
0.0131077499 -0.0375783687 -0.0027961538
0.0097840926 -0.0387660756 -0.0995735325
0.0248994852 -0.0230196248 0.2224373493
0.0247134285 -0.0085017819 0.2782654108
0.0066833933 0.0407253662 0.2082913589
-0.0048619544 0.0409965019 0.0445213808
-0.0114700623 0.0399063022 -0.0029988849
-0.0111643573 0.0400329293 -0.0658591008
-0.0221697361 0.0348993384 -0.0310174797
-0.0253682178 0.0324452796 -0.0210744367
-0.0407225263 0.0026236399 -0.0731619719
0.0184919329 -0.0353481684 -0.0377206165
0.0195645995 -0.0349038556 0.0257341877
0.0219838672 -0.0331089122 0.1731979869
0.0073900248 0.0327778747 0.3799574651
0.0079865022 0.0405537859 0.1997618581
-0.0096980693 0.0403597379 0.1122531596
0.0049549490 0.0409529203 -0.0458137935
0.0066053906 0.0407356091 -0.0549988213
-0.0287865255 0.0298225576 -0.0887154877
-0.0305035470 0.0276996658 0.0411588410
-0.0296426326 0.0285580067 0.1781751599
-0.0385050131 0.0083342153 0.1972114920
0.0260005111 -0.0302265412 -0.0587134330
0.0252971039 -0.0307662357 -0.0103201210
0.0300702552 -0.0197831900 0.2097088675
0.0263231019 -0.0299790309 0.1399981071
0.0317997592 -0.0219038601 0.1846942710
0.0163805621 0.0373442728 0.2464832438
0.0098257279 0.0403115921 -0.0517125336
0.0093480322 0.0403744896 0.1105213157
-0.0145957888 0.0386115845 -0.1043167149
-0.0312333259 0.0267485134 -0.0283350456
-0.0346590136 0.0222836669 0.0766965447
-0.0400854838 0.0074528195 0.1536556172
0.0183582303 -0.0354035498 -0.1120307703
0.0345699678 -0.0205373622 0.1641183146
0.0324825039 -0.0232584633 0.1684959970
0.0171796038 0.0328537928 0.2979884145
0.0118406851 0.0396542024 -0.0350537575
0.0133346880 0.0390353665 0.1128488404
0.0069376459 0.0406918615 -0.1028212042
-0.0314208643 0.0265040866 -0.1225605184
0.0259533695 -0.0302627110 -0.1058612042
0.0362293050 -0.0172909051 0.0141108609
0.0362125740 -0.0173312814 0.0018177865
0.0325449575 -0.0231770524 0.0264317445
0.0318359730 -0.0241012449 0.0085800958
0.0309945388 0.0004599179 0.2684082035
0.0196540162 0.0364178165 -0.0356576375
0.0141041282 0.0387166541 -0.0595791157
0.0160059199 0.0379289066 -0.0752215931
-0.0304577628 0.0277593383 -0.1296783647
0.0317497271 -0.0242136702 -0.1059171494
0.0381508828 -0.0126536056 -0.0605695912
0.0383980237 -0.0120571864 0.0899362433
0.0278446955 0.0141881206 0.2959388978
0.0240649134 0.0332626427 0.0256291983
0.0221446700 0.0347359637 0.0518346178
0.0201550592 0.0362102778 -0.0734598696
0.0283069429 -0.0284569137 -0.1147743999
0.0400283766 -0.0045223529 0.1480982534
0.0395528895 -0.0081387942 -0.0215920530
0.0276075168 -0.0058024099 0.2731961332
0.0330959669 0.0237061891 0.1791142008
0.0234818630 0.0337099925 0.1588938974
0.0251140424 0.0324576907 -0.0709666954
0.0378311590 0.0060978599 0.2098307637
0.0407168826 0.0007142591 0.0243518817
0.0396905439 -0.0070918279 -0.1028379117
0.0282736482 0.0205767668 0.2785710080
0.0331344705 0.0239595966 0.1009197926
0.0299088904 0.0281642823 0.0652494542
0.0284114864 0.0299277023 -0.0965538918
0.0406171793 0.0015949264 -0.0005997001
0.0402420738 0.0044439451 0.0177697859
0.0255673729 0.0238531866 0.2905635912
0.0342487598 0.0225070714 -0.0463290515
0.0346753760 0.0219509585 0.0974877876
0.0203849699 0.0360861067 -0.1303476020
0.0203868616 0.0350537837 0.2281817391
0.0245156398 0.0329168195 -0.1331765715
0.0401355552 0.0052529802 0.0620844231
0.0355264169 0.0205399045 -0.0891709636
0.0398930064 0.0047195700 0.1772850418
-0.0346945992 0.0162083756 0.2305073903
-0.0395893124 0.0112246586 0.1451662412
-0.0371699913 0.0131042661 0.2094644136
-0.0379709839 0.0152136070 -0.0519837074
-0.0383411733 0.0143193388 0.0642012676
0.0388638667 0.0124840519 0.1090127587
-0.0184748549 0.0186296315 0.3655637824
-0.0253519877 0.0118514571 0.3183840488
-0.0331417476 0.0123507093 0.2576717182
-0.0303350896 0.0071463262 0.2804446252
-0.0227971302 0.0247144373 0.3141598999
-0.0197136159 0.0006161920 0.3304419912
-0.0249399779 -0.0045929854 0.2911103919
-0.0188544822 -0.0100972371 0.2968203926
-0.0252477531 -0.0192980291 0.2393959722
-0.0230007658 -0.0247852419 0.2218535526
-0.0225037946 -0.0282787282 0.2040232059
-0.0068502079 -0.0113107765 0.3202479031
-0.0181497836 0.0344830445 0.2731076052
-0.0321964935 -0.0132875792 0.2267259589
-0.0325235672 -0.0205825702 0.1886386687
-0.0218719743 -0.0335767996 -0.0132396182
-0.0150940114 -0.0322325877 0.2053684854
-0.0065918316 -0.0227392749 0.2686772878
-0.0310885629 -0.0253861889 0.0633410633
-0.0334479733 -0.0223110676 0.1365997766
-0.0216828971 -0.0337218705 -0.0578721520
-0.0269941073 -0.0296468038 -0.0291054433
-0.0182976746 -0.0355272154 0.1376705674
-0.0144543551 -0.0371191697 0.0972754132
0.0025364000 -0.0126628354 0.3168416375
-0.0375960621 -0.0145193912 0.1720696999
-0.0346462070 -0.0207493579 -0.0564471835
-0.0324475284 -0.0236149906 0.0319742782
-0.0123586093 -0.0379872556 0.0919011730
-0.0117978413 -0.0382195332 -0.0611581856
0.0013050347 -0.0254523018 0.2593510973
-0.0103437507 0.0399209951 0.2497554675
-0.0355959853 -0.0193959916 -0.0021561257
-0.0359206190 -0.0186123683 0.0558560745
-0.0193880137 -0.0350755824 -0.0934197748
-0.0090545126 -0.0388934755 0.1183166622
-0.0013648185 -0.0387595009 0.1804804521
0.0075664530 -0.0174609263 0.2917449644
-0.0165992520 0.0375570733 0.2170815247
-0.0391491182 -0.0108191928 0.1332103959
-0.0383407048 -0.0127705971 -0.0057117998
-0.0109076673 -0.0385882552 -0.0776481652
-0.0031592891 -0.0396696907 0.1266623159
-0.0103294547 -0.0387256058 -0.1041054293
0.0056423814 -0.0054176156 0.3471297522
0.0001314421 0.0361149631 0.3440548413
-0.0385004460 0.0050522263 0.2047608767
-0.0399087898 -0.0072475597 0.0309129073
-0.0374850432 -0.0148360525 -0.0890700188
-0.0331624654 -0.0226831824 -0.1272439899
0.0095580456 -0.0387958389 -0.0503151683
0.0071859067 -0.0391081749 -0.0537358461
0.0092792359 0.0051785498 0.3808043770
-0.0125066947 0.0394083598 0.1859441341
-0.0403709122 -0.0037403432 0.0315395038
-0.0406794201 -0.0013989635 0.0132402518
0.0070225992 -0.0391296773 0.0231734934
0.0076534509 -0.0390466140 0.1303825692
-0.0087975165 -0.0389273138 -0.1398109008
0.0111765046 -0.0029818888 0.3468624632
0.0055586458 0.0402910413 0.2540523559
-0.0187190796 0.0369036624 0.0685456472
-0.0204368251 0.0361921492 0.0476996833
-0.0228198692 0.0344005190 0.0148765165
-0.0241063649 0.0334134456 0.0326092760
-0.0400399940 0.0077977617 -0.0073105679
-0.0405305027 0.0040783112 0.0088065183
0.0118603295 -0.0380950669 -0.0271933702
0.0120606333 -0.0380120984 -0.0191429563
-0.0071836490 -0.0391398093 -0.1459525027
0.0171371373 0.0043916272 0.3517332684
0.0102103620 0.0353505148 0.3219771982
-0.0050274170 0.0409747157 0.0860935151
-0.0017399412 0.0414075727 0.1437398476
-0.0159532206 0.0380493181 -0.0574257372
-0.0164932029 0.0378256502 0.0139982660
-0.0264697640 0.0316001101 0.0871863116
-0.0297318062 0.0273709846 0.2037745263
0.0176067164 -0.0357148369 -0.0214052148
0.0186535826 -0.0352812109 0.0287546273
0.0195638777 -0.0349041545 -0.0710832062
0.0223834012 -0.0029673386 0.3063090240
0.0106442547 0.0398830585 0.2231398979
-0.0069695679 0.0407189956 0.0539237484
-0.0106559757 0.0402336118 0.1660551129
0.0009751989 0.0414769280 0.1131545362
-0.0194236458 0.0366118216 -0.0736008388
-0.0316210123 0.0262432251 0.1038234448
-0.0342556151 0.0228094335 0.1462632843
-0.0399321858 0.0086152543 -0.0210132421
0.0219850650 -0.0333074229 -0.0122034505
0.0222504203 -0.0331038270 0.0818262193
0.0301072185 -0.0142600436 0.2331627640
0.0237976875 -0.0319166745 0.1706232185
0.0281244823 -0.0285969080 0.1489965843
0.0152647010 0.0325350454 0.3183004628
0.0060809631 0.0408046597 0.0332959225
0.0088067257 0.0404457626 0.1363088394
0.0028620504 0.0412284891 -0.0920139705
-0.0310639959 0.0269692086 -0.0481017474
-0.0318868809 0.0258967071 -0.0140390022
-0.0399561426 0.0084335943 0.0839598668
0.0105002387 -0.0386584346 -0.1281349936
0.0287852233 -0.0280780313 -0.0426052976
0.0290885489 -0.0276826331 -0.0241131961
0.0084503367 0.0305333301 0.3983526551
0.0117903295 0.0396750603 0.0065349141
0.0136510217 0.0389043368 0.0299032212
0.0051411438 0.0409284043 -0.1074352420
-0.0336844439 0.0235538656 -0.0966753666
0.0270132691 -0.0294494949 -0.0827235014
0.0361462213 -0.0174914089 0.0390436627
0.0384297823 -0.0119805441 0.1343561210
0.0350038661 -0.0199717567 -0.0306103878
0.0318320312 -0.0241063832 0.0214773628
0.0311271774 0.0052404995 0.2717674266
0.0165521216 0.0377026626 -0.0468981938
0.0160386662 0.0379153427 0.0385172037
0.0152980217 0.0382221275 -0.0869860024
-0.0342417531 0.0228275005 -0.1454689249
0.0294724029 -0.0271822626 -0.0802994774
0.0372270511 -0.0148830674 -0.0181411353
0.0364144806 -0.0168440250 -0.0358848626
0.0271855500 0.0133331118 0.3020686780
0.0224444440 0.0345059599 -0.0350883599
0.0240441555 0.0332785693 -0.0549546201
0.0159044808 0.0379709241 -0.0881052814
0.0286676213 -0.0281801805 -0.1113113598
0.0402404516 -0.0029093607 0.1630597450
0.0402496627 -0.0028393032 0.0955389450
0.0152055590 0.0224767424 0.3839518632
0.0225284048 0.0344415404 0.1687570908
0.0284340341 0.0299104024 0.0005708224
0.0239405120 0.0333580906 -0.0867401326
0.0400118982 0.0016367509 0.1822493240
0.0406643195 0.0003144769 -0.0209575198
0.0402129706 -0.0031183751 -0.0963453056
0.0279705878 0.0235230762 0.2704082343
0.0322749605 0.0250800056 0.1556497741
0.0339203841 0.0229351237 0.1416323608
0.0143542544 0.0386130485 -0.1401935227
0.0399465939 0.0066881880 -0.0448367977
0.0403212321 0.0038427186 0.0873684976
0.0223375829 0.0235566823 0.3203796197
0.0342460491 0.0225106050 -0.0644955195
0.0309227812 0.0268426309 -0.0223927590
0.0237598702 0.0334966894 -0.1127319915
0.0354607314 0.0206980049 0.1359316555
-0.0360499216 0.0198527140 -0.0930070852
0.0402175395 0.0046302893 0.1393864617
0.0304259089 0.0274903259 -0.1481909871
0.0396098218 0.0092460552 -0.0930565041
0.0400857903 0.0056362097 -0.1455219801
-0.0363986026 0.0190130883 -0.0261465652
-0.0373898654 0.0166174180 0.1670534350
0.0362059957 0.0188980113 0.0277605914
-0.0383415019 0.0143185450 -0.0169709636
0.0386011993 0.0131161239 0.0686897277
