-0.1330456718 -0.0474989097 -0.0158649171
-0.1308568906 -0.0421330158 -0.0142085808
-0.1224851275 -0.0427318348 -0.0214404306
0.1162544785 -0.0409651000 -0.0158895334
0.1225270343 -0.0399234379 -0.0275599840
0.1115613985 -0.0429224842 -0.0191360832
-0.0042898364 0.0962922284 0.3071048180
-0.0064692346 0.0977003485 0.3107002233
-0.0068136431 0.1018173548 0.3102156817
-0.0070190116 0.1118140675 0.3113173795
-0.0063145481 0.0508293029 0.3020638636
-0.0011060000 0.0382585291 0.2694477831
-0.0020605045 0.0278862055 0.2787191887
0.0077965428 0.0244158724 0.2678872189
0.0055927928 -0.0105410571 0.2720571865
-0.0208442025 0.0018201562 0.2876222955
-0.0179020553 0.0216792212 0.2926134076
0.0149071072 -0.0115954803 0.2506443544
0.0202267492 -0.0083721677 0.2416221219
-0.0278628933 -0.0104147308 0.2489844459
-0.0180485335 -0.0234085517 0.2362831469
-0.0298451710 0.0018996537 0.2579152260
-0.0265075835 0.0156505232 0.2631761538
-0.0041193876 0.0966412883 0.3063927127
-0.0041692646 0.1305373428 0.3135659952
-0.0022620954 0.0671648416 0.2918115215
-0.0066618298 0.0799691720 0.3064371343
-0.0023839092 0.1144136333 0.2983098257
-0.0089470596 0.0851859131 0.2969885145
-0.0013339497 0.0601386642 0.2649596940
-0.0063208149 0.1687870026 0.3184583398
-0.0097618337 0.0505159508 0.2861346171
-0.0015389838 0.0707079744 0.2664093801
-0.0087313561 0.1359052204 0.3020111678
-0.0042317006 0.0275411473 0.2936558226
-0.0091412423 0.1147380947 0.2906528839
-0.0100245259 0.0690857458 0.2765594896
-0.0080683348 0.1557601957 0.3045499039
-0.0055681503 0.0252193499 0.3128969042
-0.0059569181 0.1618921535 0.2993939506
-0.0098925108 0.0269591568 0.2934942577
-0.0056549253 0.1049810102 0.2554063192
-0.0051157574 0.1237709470 0.2747489862
-0.0060690243 0.1236340147 0.2713718945
-0.0066371589 0.0982547516 0.2574209479
-0.0008720510 0.0290259159 0.2568866245
-0.0058903601 0.0704809093 0.2292951706
-0.0104250005 0.0332979168 0.2435664977
-0.0119382161 0.0023256680 0.3017043715
0.0042507830 0.0295197442 0.2375341533
-0.0072333760 0.0602305185 0.2341230509
-0.0091507167 0.0733986069 0.2621461847
-0.0218669336 0.0234211577 0.2606057134
0.0091255846 0.0048798209 0.2916173636
-0.0178007697 -0.0091658275 0.2741671561
0.0014949987 0.0302978600 0.2318212111
-0.0187850165 0.0283390933 0.2432296508
0.0080343274 -0.0223396566 0.2373536810
0.0189005218 -0.0094154962 0.2435137441
-0.0329223176 -0.0059644633 0.2425990269
-0.0074993580 -0.0253089824 0.2378288272
-0.0098349913 0.0378962198 0.2163885206
-0.0054517049 -0.0362234239 0.1953050551
0.0250458928 -0.0083616754 0.2258481437
-0.0215662900 0.0090537642 0.2890541486
-0.0282824700 -0.0216313740 0.2169647224
0.0127600294 0.0263249494 0.2226158048
0.0091474472 -0.0367755638 0.1788629095
0.0226874427 -0.0271922837 0.1793466360
0.0669731602 0.0125878272 0.2769938351
0.0616700100 0.0120714483 0.2789968683
0.1078588142 0.0192024284 0.2947513160
0.0435362872 0.0088385901 0.2673498744
0.0714063648 0.0132936486 0.2787756048
0.0909327821 0.0157449779 0.2783342121
0.0704589026 0.0122607143 0.2672743480
0.0991265442 0.0177863730 0.2909168171
0.0338840333 0.0097920600 0.2815690875
0.0121443702 0.0092755468 0.2823755223
0.0250421485 0.0114487224 0.2870041611
-0.0208444166 0.0149441485 0.2917681308
-0.1361308489 0.0222084969 0.3057762933
-0.0468275383 0.0065538563 0.2517744956
-0.0627507839 0.0090133207 0.2572199403
-0.0704117096 0.0106359365 0.2653782538
-0.0520868655 0.0085945925 0.2690589098
-0.0758744961 0.0121107587 0.2752018444
-0.0829636294 0.0128509939 0.2731542086
-0.0718879053 0.0122461312 0.2833076917
-0.0462374841 0.0092200150 0.2799201363
-0.0506760586 0.0136512281 0.2915901665
-0.0308255874 0.0090675848 0.2810766610
-0.0337389485 -0.0227779987 0.1968761029
-0.0124867371 -0.0354909343 0.1922164668
-0.0054524846 0.0454866557 0.2054409298
0.0079684260 -0.0407362491 0.1592062134
0.0235311105 -0.0332647879 0.1404948965
0.0969493502 0.0168278814 0.2823279045
0.1348544140 0.0247238245 0.3165403390
0.1317062611 0.0239389041 0.3123032619
-0.0712021301 0.0177995829 0.2964772094
-0.0814381445 0.0179146496 0.3021423183
-0.1146546736 0.0213778560 0.3099021748
-0.1264792819 0.0201111293 0.2948279512
-0.0309574640 -0.0328379373 0.1663607362
-0.0114074068 -0.0492896552 0.1145233141
0.0217337596 0.0177493095 0.2208849535
-0.0033864874 -0.0532572636 0.0930459871
0.0277388905 0.0020718528 0.2148806138
0.1153113431 0.0201620187 0.2947382188
0.1308260534 0.0230346041 0.3058681391
0.1344186106 0.0249082585 0.3173776650
0.0420403762 0.0148577645 0.2956820062
0.1071388596 0.0237952023 0.3049593868
-0.0427023866 0.0157266719 0.2856438577
-0.0253209043 0.0132230445 0.2746834169
-0.0235910400 -0.0425634697 0.1408096633
-0.0133974908 -0.0499198907 0.1072976855
0.0203573008 -0.0380043542 0.1252263642
0.0619463943 0.0106112427 0.2514485165
0.0472358032 0.0185516050 0.2855272139
0.1330864340 0.0271377184 0.3093604569
-0.0677100118 0.0194522703 0.2879855912
-0.1260225059 0.0241825143 0.3080221599
-0.1141237573 0.0178042353 0.2854977094
-0.1271885022 0.0202172336 0.2945919322
-0.0558789617 0.0096566225 0.2375452304
-0.0241465634 -0.0427897064 0.1375484755
0.0149112575 -0.0436137394 0.1195509717
0.0184811230 0.0168750739 0.2730071705
0.0302144632 0.0182005795 0.2603810469
0.0169957876 0.0169054887 0.2625029170
0.0476591119 0.0195177396 0.2815139363
0.0771983409 0.0225150215 0.2704535630
0.1071321474 0.0249844276 0.2939311103
0.0660986208 0.0212387110 0.2837755821
0.0715266936 0.0216834570 0.2882152961
0.0643121737 0.0213006852 0.2695731505
-0.0370038491 0.0175845748 0.2703858846
-0.0263184562 0.0166393387 0.2658946355
-0.1505202021 0.0268730113 0.3066230165
0.0808370363 0.0170828985 0.2597609602
0.0455561352 0.0199345678 0.2437177934
0.0976336136 0.0242687310 0.2811831697
-0.0454152940 0.0187097688 0.2506464899
-0.0731378174 0.0208567303 0.2809486967
-0.0468363564 0.0189854465 0.2420858238
-0.0830061072 0.0218472637 0.2778886050
-0.0754823293 0.0214290646 0.2596394652
-0.0970640432 0.0231167100 0.2822064897
-0.0390448038 -0.0269640973 0.1541127212
0.0423277362 0.0165934307 0.2360722292
-0.0727920752 0.0212425601 0.2551478863
-0.1466321983 0.0273310443 0.3009365338
-0.1180743901 0.0207399520 0.2755266035
0.0874332757 0.0188649040 0.2617157657
-0.1046739360 0.0229991415 0.2707638692
-0.1148003619 0.0217124111 0.2739781823
-0.0061329993 -0.0544736362 -0.0205987263
-0.0001079473 -0.0539255869 -0.0640422976
-0.0390071439 0.0171107547 0.1729904883
0.0052585832 -0.0538237376 -0.0672246570
0.0274396158 -0.0482339556 -0.0249208511
-0.0131542894 -0.0541277079 -0.0528795274
0.0009875345 -0.0505320561 -0.1000071834
0.0167746054 -0.0520995753 -0.0220484144
-0.0131243234 -0.0541505905 -0.0145677179
0.0167739861 -0.0518337749 -0.0687535546
0.0356991450 -0.0423220631 -0.0462596812
-0.0328984614 -0.0504342994 -0.0789560242
0.0241744288 -0.0497976419 -0.0701028427
0.0564208768 -0.0365469401 -0.0269788860
0.0453568886 -0.0367912004 -0.0032332256
0.0597769953 -0.0349593976 -0.0099682523
0.0406852023 -0.0396575190 -0.0374147542
-0.0350614468 -0.0500860511 -0.0396684548
-0.0276366088 -0.0515878912 -0.0970888651
0.0198607093 -0.0463285045 -0.1034360881
0.0380732432 -0.0288028709 0.0180241688
0.0610801463 -0.0360251505 -0.0302790335
0.0593813376 -0.0373824028 -0.0668790168
0.0823734688 -0.0336789187 -0.0649356240
0.0568753701 -0.0370465272 -0.0826157710
0.0525383651 -0.0376962632 -0.0840079094
-0.0432601237 -0.0453240263 -0.0372569019
-0.0217966169 -0.0538799798 -0.0205297659
-0.0414811724 0.0141793206 0.1077907206
0.0503270348 -0.0272096138 -0.0981675213
0.0381904123 -0.0192298410 -0.0967214875
0.0774275448 -0.0319538340 -0.0060060576
0.0614425853 -0.0324395999 -0.0883665548
0.0949117669 -0.0320384728 -0.0516394084
0.0500177181 -0.0393740167 -0.0567331133
0.0435445373 -0.0172731255 -0.0643160752
0.0393627087 -0.0187434996 -0.0923238589
0.0510620715 -0.0180027247 -0.0848115752
0.0574884859 -0.0171493087 -0.0713064548
-0.0744827780 -0.0187285553 -0.0071443420
-0.0707892366 -0.0195284361 0.0019627795
-0.0527119756 -0.0201452439 -0.0062435726
-0.0645173225 -0.0182096940 -0.0254132455
-0.0623561878 -0.0196686606 -0.0042262250
-0.0427594746 -0.0452108620 -0.0189431426
-0.0499448503 -0.0306931945 0.0144882626
-0.0585753525 -0.0397828538 -0.0592549555
-0.0740898196 -0.0369303187 -0.0653624704
-0.0591319589 -0.0387535273 -0.0789343691
-0.0888630356 -0.0344636999 -0.0659377328
0.0964716575 -0.0232504778 -0.0680031271
0.0798062392 -0.0297508710 0.0044320232
0.0766712637 -0.0348564623 -0.0364748361
0.0714492491 -0.0345506641 -0.0286639317
0.1055865643 -0.0303981113 -0.0479731044
0.0659913071 -0.0180220851 -0.0154090494
0.0484222879 -0.0201194550 0.0005874715
0.0483304505 -0.0184239276 -0.0266382495
0.0716747733 -0.0185370851 -0.0014842126
0.0497038931 -0.0200531433 0.0008078117
0.0862657254 -0.0141338652 -0.0367844852
0.0575484475 -0.0161416016 -0.0525413654
0.0361509994 -0.0075156438 -0.0484720882
-0.0506612076 -0.0185767732 -0.0886599712
-0.0821775946 -0.0164682348 -0.0660506076
-0.0975449936 -0.0157282434 -0.0610782944
-0.1017626976 -0.0141430482 -0.0320472515
-0.0919212249 -0.0150209645 -0.0339879491
-0.1009857986 -0.0148579507 -0.0263904128
-0.0649011285 -0.0239682739 -0.0931136199
-0.0713180281 -0.0190427525 -0.0844271653
-0.0579608984 -0.0387149583 -0.0366909978
-0.0515451096 -0.0397412424 -0.0370710026
-0.0629383873 -0.0366516389 -0.0161237920
-0.0881391131 -0.0302457372 0.0044412755
-0.0868742973 -0.0277777944 0.0099448622
-0.0718615157 -0.0357817765 -0.0837759799
-0.1063174712 -0.0320219598 -0.0533299753
-0.1045982528 -0.0325542690 -0.0421374271
0.0348960034 0.0043542338 -0.1663110684
0.0733290864 -0.0276557923 0.0108695757
0.0685858203 -0.0271002122 0.0138013057
0.0822437624 -0.0322116233 -0.0180695044
0.0794298070 -0.0303531176 -0.0761805951
0.0708763174 -0.0160383820 -0.0343443318
0.0940594713 -0.0146624557 -0.0235449371
0.0799554664 -0.0160468842 -0.0251891229
0.1436254746 -0.0104124797 -0.0219540856
0.2596642895 0.0008156812 0.0577898075
0.1347905837 -0.0113458139 -0.0292026010
0.1790025578 -0.0072766234 -0.0019528347
0.2144441094 -0.0032180930 0.0318421980
0.2442957795 -0.0007986931 0.0453186205
0.2147951314 -0.0040484947 0.0191151457
0.2300093597 -0.0022475798 0.0345029930
0.1497517959 -0.0099283617 -0.0193744866
0.1804472708 -0.0064916210 0.0087201993
0.2312949268 -0.0024713074 0.0301635138
-0.0782273241 -0.0156708905 -0.0500545837
-0.0959496937 -0.0144358916 -0.0403915682
-0.1203473710 -0.0137194281 -0.0130076875
-0.1382351040 -0.0118389606 -0.0055548009
-0.1122206038 -0.0142656021 -0.0191669732
-0.1561975838 -0.0106417237 0.0081486534
-0.1247567188 -0.0122552721 -0.0201755704
-0.1693240519 -0.0104279363 0.0241124637
-0.1563790255 -0.0115636481 0.0166927323
-0.0685354261 -0.0367397045 -0.0315183111
-0.0583464358 -0.0343177461 -0.0976765079
-0.0688760959 -0.0371432623 -0.0383314367
-0.0721370066 -0.0363786298 -0.0346086202
-0.1128747889 -0.0311368993 -0.0452879490
0.0977321539 -0.0266288728 -0.0657102600
0.1023685676 -0.0275790329 0.0047153183
0.1433772331 -0.0217436850 0.0244485599
0.1161781724 -0.0287214866 -0.0471021944
0.1055580620 -0.0159032665 0.0022055880
0.0993965360 -0.0145356011 -0.0184991981
0.1016918247 -0.0144544793 -0.0161013784
0.1811090254 -0.0084140559 0.0377627364
0.1601041997 -0.0095447052 0.0193139403
0.1415040747 -0.0116401228 0.0128245122
0.1622369465 -0.0091412240 0.0185891977
0.3130456836 0.0052852720 0.0918936847
0.2182275618 -0.0030621240 0.0395765963
0.1990855553 -0.0046486063 0.0275779395
0.1936738848 -0.0050242270 0.0231246056
0.3386321750 0.0077539382 0.1013520323
0.2560271321 -0.0002074114 0.0443950934
-0.1849273001 -0.0074122534 0.0002988763
-0.3145409729 0.0046179896 0.0816990662
-0.1245791964 -0.0129456083 -0.0365819570
-0.1546887998 -0.0105465113 -0.0236071526
-0.1497304897 -0.0108068300 -0.0237220499
-0.1443448659 -0.0106275930 -0.0169155129
-0.1309686821 -0.0119845220 -0.0270474610
-0.1226192141 -0.0139084992 -0.0495299641
-0.2848263925 0.0020557535 0.0659746507
-0.2170540043 -0.0047748189 0.0153073971
-0.2446011158 -0.0031053113 0.0607935037
-0.1913505072 -0.0071927598 0.0250129920
-0.1695737468 -0.0083585252 0.0058271685
-0.3405232783 0.0060959062 0.1086961899
-0.2887391555 0.0014162697 0.0802456679
-0.0786005442 -0.0346853167 -0.0238108193
-0.1136011969 -0.0252826896 0.0112018779
-0.1395058946 -0.0209486701 0.0255034496
-0.0961771666 -0.0317495291 -0.0162361641
-0.1151673031 -0.0306148544 -0.0523067295
0.1135085601 -0.0208376135 -0.0565211616
0.1145234323 -0.0287194615 -0.0145912128
0.1302856629 -0.0109538603 -0.0086392114
0.2159512071 -0.0042687329 0.0479377827
0.2705416758 0.0008954444 0.0758554310
0.2214542009 -0.0033821300 0.0474579905
0.1798255588 -0.0065003162 0.0187911348
0.1662832348 -0.0087515870 -0.0149395638
0.2077935716 -0.0048852585 0.0104309666
-0.2314806181 -0.0029662599 0.0413363313
-0.2654194576 0.0001677200 0.0579345433
-0.2789833370 0.0011972263 0.0678145302
-0.2301280209 -0.0029763851 0.0390039992
-0.2435371371 -0.0024951791 0.0284954819
-0.3118986616 0.0039781719 0.0728451394
-0.0783083549 -0.0279037514 -0.0895489155
-0.1519750430 -0.0213009869 0.0254723264
-0.0924376895 -0.0312019605 -0.0737810425
-0.1129867859 -0.0301854576 -0.0176089533
-0.1243475320 -0.0288391855 -0.0143388574
0.1963326834 -0.0118030694 -0.0035339768
0.1838374246 -0.0125279697 -0.0108862916
0.2530974523 -0.0042645919 0.0341362650
0.1425817543 -0.0155869685 -0.0358308351
0.2312933888 -0.0048157149 0.0220244347
0.1526035572 -0.0179879319 0.0358103990
0.1389685862 -0.0230922457 0.0170130659
0.2184751403 -0.0047179827 0.0154193650
0.2905523068 0.0022827662 0.0611680061
-0.2803202551 0.0008683361 0.0494646486
-0.3050221707 0.0031712885 0.0646152721
-0.1293878285 -0.0254202313 0.0120395931
-0.1228013321 -0.0282899479 -0.0523353722
0.2389764989 -0.0092314667 0.0268738971
0.1381004811 -0.0229687934 -0.0374765360
0.2273254380 -0.0094126291 0.0175409862
0.1205082008 -0.0270141969 -0.0464682134
0.3244452575 0.0019883004 0.0992132013
0.3016866390 -0.0010494707 0.0895178424
0.2821821421 -0.0008882849 0.0958682730
0.1658704974 -0.0147772542 0.0459465678
-0.2802070013 0.0001548767 0.0472770552
-0.3099686886 0.0034462901 0.0668200455
-0.2003734420 -0.0145619316 0.0483432596
-0.1389896344 -0.0246809827 0.0116791341
-0.0475815506 0.0019597618 -0.1550996423
0.2903039508 -0.0025341517 0.0603509932
0.1246467421 -0.0272771035 -0.0094917653
0.1415944161 -0.0239907037 0.0068855137
0.2239704403 -0.0131767047 0.0298712352
0.1857109609 -0.0186139821 -0.0011010970
0.1653912450 -0.0215255135 -0.0164744227
0.1834948982 -0.0192334699 0.0108883873
0.1592245442 -0.0228832878 0.0003203146
0.2580280780 -0.0081418742 0.0486301597
0.2077451456 -0.0153444037 0.0104828639
0.2034993979 -0.0162310254 0.0198645005
0.2258724597 -0.0109472825 0.0604578047
0.3397689390 0.0046538750 0.1145594288
0.2567289202 -0.0042414486 0.0834935558
0.3334579130 0.0029194341 0.0967726321
0.1961192320 -0.0138972015 0.0507918910
-0.3074624891 -0.0015702516 0.0906788286
-0.3355401424 0.0022516762 0.1037234151
-0.2804327037 -0.0023838161 0.0905769018
-0.1395485673 -0.0134601392 -0.0414120562
-0.1337605747 -0.0180043665 -0.0490499746
-0.2736175699 -0.0031443220 0.0400270166
-0.3145814688 0.0022952738 0.0672107888
-0.1950374245 -0.0125236490 0.0541610645
-0.1295320795 -0.0289489542 -0.0193638314
0.1356626147 -0.0263884824 -0.0116096169
0.2324298072 -0.0103028716 0.0598806002
0.2318199090 -0.0114996257 0.0490330183
0.2055142651 -0.0134163286 0.0528853352
-0.3216621498 -0.0001745961 0.0899691680
-0.2764553177 -0.0062855384 0.0701783322
-0.3511035523 0.0038638930 0.0972825951
-0.3007001424 -0.0032521744 0.0608435313
-0.2831698685 -0.0055538725 0.0492415209
-0.1408570569 -0.0217641866 -0.0463186062
-0.1616771768 -0.0220998816 -0.0287494220
-0.1593287952 -0.0230810799 -0.0293531282
-0.2559969417 -0.0089772380 0.0310418624
-0.1343382427 -0.0271874018 -0.0072538113
-0.1309382514 -0.0272156871 -0.0048633379
-0.1633530600 -0.0237793835 -0.0127307973
-0.1638607217 -0.0235639750 -0.0188036595
-0.2346198103 -0.0133641382 0.0319631603
-0.1559467447 -0.0246855451 -0.0253514916
-0.1372029248 -0.0275416086 -0.0318221906
-0.2468795980 -0.0114600826 0.0345667202
-0.1902238813 -0.0196427757 -0.0053645905
-0.1494565828 -0.0256059205 -0.0306946577
0.1952964808 -0.0150811371 0.0466438661
0.1544871650 -0.0221245173 0.0136384152
0.2466351231 -0.0088695363 0.0611652918
0.2809503216 -0.0043278846 0.0753148225
-0.2865562722 -0.0041998748 0.0841214458
-0.2975216891 -0.0041146485 0.0733111143
-0.2804971143 -0.0039318394 0.0847120017
-0.3117660046 -0.0006832562 0.0963538133
-0.1879791981 -0.0202209789 0.0136731808
-0.1604735080 -0.0227332910 0.0124796790
-0.1467966452 -0.0253968352 -0.0008391035
-0.1865064781 -0.0189669605 0.0261025200
-0.2727976190 -0.0077238625 0.0532819799
0.1578130933 -0.0231108216 0.0008498222
0.2137797752 -0.0144881407 0.0361906475
-0.2312792583 -0.0139195176 0.0366645647
-0.2117741323 -0.0154783113 0.0378176716
0.1709660141 -0.0204522240 0.0158605459
0.1732968747 -0.0195913881 0.0217895278
-0.1283439994 -0.0233885160 -0.0557387704
-0.2281707562 -0.0129262491 0.0480207976
-0.1264860034 -0.0283755326 -0.0793376160
-0.0041283645 0.1319335076 0.3136639999
-0.0027389605 0.1327611901 0.2985482140
-0.0014908624 0.0682671248 0.2832964971
-0.0058058406 0.1687870026 0.3261528118
-0.0021343598 0.1015082752 0.2812703327
-0.0084470655 0.1505948191 0.3101931038
-0.0092494652 0.1091519191 0.2887350763
-0.0100534296 0.0675819974 0.2823289168
-0.0100218790 0.0692600395 0.2665921718
-0.0070688704 0.1062645530 0.2779306881
-0.0050102580 0.0947551137 0.2705496320
-0.0104250005 0.0403437889 0.2481094272
-0.0042050623 0.0595061987 0.2479390836
-0.0079758834 0.0299500063 0.2487574629
-0.0185982425 0.0270988226 0.2530416741
-0.0012308064 -0.0303098425 0.2162550621
0.0118629897 -0.0346414150 0.1836686053
-0.0232761876 -0.0296633764 0.2022018223
-0.0105795805 -0.0269199933 0.2303342121
0.0014883256 -0.0341292893 0.1974628911
0.0242568060 -0.0269370278 0.1757063390
-0.0331891031 -0.0197619719 0.2094988996
-0.0201075017 -0.0324935558 0.1975380804
-0.0232250063 0.0270239965 0.2244244870
-0.0036502263 -0.0505203687 0.1116840091
0.0257112686 -0.0045480191 0.2286048596
-0.0382910781 -0.0151666248 0.1994270989
-0.0206903632 -0.0392450907 0.1673316331
-0.0125705333 -0.0421374351 0.1604123700
0.0012649882 -0.0514055555 0.0983102099
0.0260686541 0.0025104640 0.2261847839
-0.0375394068 0.0015000514 0.2266014688
-0.0151899490 -0.0521138465 0.0899539671
-0.0390007621 0.0096228681 0.2302612978
0.0269972585 0.0124785073 0.1980875509
-0.0265557701 -0.0415111596 0.1323700226
-0.0048741138 -0.0543532443 0.0797938723
-0.0372755001 0.0111679739 0.2150586293
-0.0006444246 -0.0533889258 -0.0596222062
0.0001733619 -0.0532019287 -0.0024728404
0.0196733446 -0.0426722858 0.0991724267
-0.0132687724 -0.0528448096 0.0604984034
0.0106318456 -0.0508144156 -0.0556114181
-0.0009298375 -0.0534540943 -0.0714190931
0.0148937657 -0.0486102770 0.0805950554
0.0140104556 -0.0494052531 0.0337068207
0.0236526154 -0.0412469256 0.0444596443
-0.0309282634 -0.0447001483 0.0814424287
-0.0211832468 -0.0510384141 -0.0194382685
-0.0215315818 -0.0509588444 -0.0714611729
0.0197683456 -0.0448130018 -0.0658236389
-0.0111361584 -0.0533315496 -0.0018169448
-0.0263823501 -0.0487366341 0.0213563236
-0.0107268834 -0.0534249553 -0.0513607753
0.0212276394 -0.0436491575 -0.0843098167
-0.0286133505 -0.0469563666 -0.0595537652
-0.0147826552 -0.0535060503 -0.0771543520
0.0046297446 -0.0521846690 -0.1213160996
0.0152719851 -0.0483986328 -0.1214333238
0.0023832416 -0.0526968083 -0.1613977160
0.0082573598 -0.0541268833 -0.0544931634
0.0239252984 -0.0414978465 -0.1089929051
-0.0257781826 -0.0492173354 -0.1564457228
-0.0318244782 -0.0443949320 -0.1120011916
-0.0199815057 -0.0517679986 -0.0984493178
-0.0042936140 -0.0542211351 -0.1031411136
-0.0011319332 -0.0534718966 -0.1844182945
0.0283620273 -0.0484174362 -0.0517982499
-0.0396501961 -0.0391470301 0.0124918841
-0.0346812654 -0.0421164161 -0.1303325768
-0.0181258331 -0.0517361368 -0.1790448303
-0.0123536016 -0.0530539186 -0.1638801339
0.0252688544 -0.0496718619 -0.0582744455
0.0203408836 -0.0428560214 -0.2313836357
0.0311378096 -0.0449485838 -0.0133059957
-0.0353784387 -0.0415313312 -0.1820244910
-0.0341299591 -0.0499062864 -0.0927478703
0.0242383908 -0.0494661274 -0.0924061050
0.0176712615 -0.0449941846 -0.2456066639
-0.0109056991 -0.0528802999 -0.2128100055
-0.0369594051 -0.0489025079 -0.0220544289
-0.0261268041 -0.0481527161 -0.2196766865
0.0033212536 -0.0515138793 -0.2399294775
0.0156286825 -0.0453351630 -0.2569673740
0.0078948315 -0.0541391817 -0.0342722028
-0.0311352181 -0.0512703086 -0.0420837879
-0.0468102723 -0.0427435084 -0.0697560867
0.0143556928 -0.0408520284 -0.2903551651
0.0320106814 -0.0371023665 -0.1087049323
-0.0294516945 -0.0427687994 -0.2601233736
0.0043218702 -0.0485642410 -0.2718351464
-0.0152885907 -0.0541457996 -0.0221193357
-0.0156219264 -0.0487188380 -0.2707527236
-0.0052343883 -0.0485007050 -0.2859743261
-0.0232684645 -0.0363386519 -0.3081451362
-0.0890923774 -0.0324262423 -0.0122533838
0.0789017166 -0.0299713936 0.0211093959
0.0811798356 -0.0272489839 0.0349674655
0.1658835449 -0.0172452272 0.0593411771
-0.0062814216 -0.0285405015 -0.3406172548
0.1687459946 -0.0203194843 0.0244038360
0.2213070941 -0.0145735507 0.0357677839
-0.0032888633 0.1611435184 0.3085582150
-0.0063070384 0.1615562539 0.3009757693
-0.0050188205 0.0922102058 0.2516727655
-0.0041843568 0.1184574469 0.2794555368
-0.0071980100 0.1060015767 0.2685773397
-0.0037864292 0.0707012067 0.2468979243
-0.0084454093 0.0659070773 0.2498243485
-0.0055315798 0.0608508364 0.2230259372
-0.0074263340 0.0643318246 0.2390534336
-0.0018922903 0.0366159024 0.2104955733
-0.0024265293 0.0338429641 0.1856935640
-0.0051279822 0.0317185312 0.2249600895
0.0060498877 0.0306995465 0.2119292735
-0.0099572566 0.0330758280 0.1956659876
0.0079147301 0.0303372346 0.2105626037
0.0178963614 0.0242530910 0.1984555784
0.0120075694 0.0305010821 0.1799456580
-0.0030356137 0.0349156591 0.1109244931
0.0011956141 0.0337615870 0.1642877236
-0.0231940821 0.0311548229 0.1744904247
-0.0372087453 -0.0360015390 0.1093964679
-0.0084112162 0.0349477803 0.1074292640
-0.0147011371 0.0333365669 0.1570848450
-0.0102628730 0.0344912327 0.1170071761
0.0008941783 0.0339784489 0.1110976187
0.0107284025 0.0315761299 0.1579334429
-0.0297224413 0.0233908263 0.2059625757
0.0240694824 -0.0374369692 0.1083262197
-0.0213054163 0.0317438032 0.1138322921
-0.0172063012 0.0328168374 0.1374995743
-0.0225878797 0.0314426681 0.1273091160
0.0127350727 0.0308796025 0.1306581154
0.0080034299 0.0321471291 -0.0073766749
0.0050853756 0.0328830558 0.0442730258
0.0087005699 0.0319713120 0.0455990675
0.0127032598 0.0309618427 -0.0474496533
-0.0321416185 0.0223757399 0.1950498631
-0.0008790292 -0.0534423281 -0.0399064519
-0.0030964417 -0.0539481975 -0.0210282600
0.0185867532 -0.0450134163 0.0902275098
-0.0393897896 -0.0341046033 0.1070860923
-0.0095102140 -0.0537026556 0.0356876754
-0.0316537451 0.0248984931 0.1549134561
-0.0315209928 0.0249853428 0.1600162185
-0.0149534861 0.0333030651 0.0742860127
-0.0181800404 0.0324892918 0.0405544424
-0.0242509270 0.0309581459 0.0392698965
-0.0221515145 0.0314876413 -0.0184900794
0.0224320294 0.0231026704 0.1423814890
0.0143768534 0.0297284757 0.0194519426
0.0135503271 0.0303876085 0.0356941133
0.0210437382 0.0244118123 -0.0600987754
0.0191841536 0.0258947816 -0.0877741437
-0.0356839563 0.0205632552 0.1829602294
0.0050093164 -0.0520981165 -0.0615427148
0.0256584299 -0.0396538162 0.0216090648
0.0131036258 -0.0501282436 0.0087822797
0.0348165828 -0.0214329026 0.0913178985
0.0308377813 -0.0241641176 0.1272013790
0.0261415997 -0.0392011556 0.0268935953
-0.0372832335 0.0183361402 0.1826881952
-0.0290148486 -0.0465674343 0.0489446339
-0.0173301713 -0.0519180110 -0.0253576371
-0.0206700388 -0.0511556358 0.0470157122
-0.0061114693 0.0355331212 0.0518227185
-0.0105453480 0.0344148471 0.0293743091
-0.0064375791 0.0354508726 -0.0000340303
-0.0172169077 0.0327322047 -0.0693852780
-0.0212422774 0.0317169611 -0.0586513103
-0.0349576590 0.0225119683 0.0607503526
-0.0357549164 0.0218760918 0.0728070698
-0.0250047792 0.0304501859 -0.0333062281
-0.0271251385 0.0287590298 0.0248444547
0.0239949449 0.0218862265 0.1344174295
0.0275573909 0.0192018438 0.0921875382
0.0153755486 0.0289320429 -0.0753176612
-0.0046112211 0.0353285154 -0.0407036736
-0.0057087348 0.0356053059 0.0367045592
-0.0000270580 0.0341723999 -0.0082734452
0.0031406355 0.0333735148 -0.0268064650
0.0208167222 0.0245928516 0.0024252446
0.0259064584 0.0205339222 -0.0487795715
0.0270179532 0.0196475347 0.0619534365
0.0223789806 0.0233469920 -0.0203733640
0.0268551529 0.0197773635 -0.1280554993
0.0220992951 0.0235700337 0.0851350752
0.0243433111 0.0217804906 -0.0391848371
0.0228983656 0.0229327962 0.0222265163
0.0127927473 -0.0503209761 -0.0778862266
0.0256799252 -0.0397886206 -0.0024377862
0.0218353998 -0.0431647793 -0.0477539025
0.0330990841 -0.0179714219 0.1474466809
0.0286245675 -0.0361197640 0.0254669617
-0.0399986875 -0.0266003137 0.1437828652
-0.0116671137 -0.0532101518 -0.0057637176
-0.0266235289 -0.0485445861 0.0503827968
-0.0161724151 -0.0521820498 0.0095027311
-0.0339944583 0.0232356412 0.1000997172
-0.0349619986 0.0223173078 0.1399018864
-0.0099079824 0.0344163450 -0.1125932729
-0.0060468141 0.0352482319 -0.1464293275
-0.0079942903 0.0348628025 -0.1212218611
-0.0312040895 0.0255057402 -0.0037996338
-0.0250483287 0.0304154517 -0.0706386925
-0.0272891214 0.0286282403 -0.1141964339
0.0136625434 0.0302981190 -0.1623981928
0.0210170355 0.0244331070 -0.1563148196
0.0209620631 0.0244769460 -0.1760637891
-0.0025751079 0.0344818240 -0.1540555494
0.0093140529 0.0317331773 -0.0945154233
-0.0057214860 0.0353369558 -0.1393661635
0.0284748396 0.0176863948 -0.0701531486
0.0291223963 0.0163416135 0.0114136678
0.0287837525 0.0170448753 -0.0707208498
0.0252496963 -0.0404416745 -0.1043106809
0.0360704553 0.0000423227 0.0916451839
0.0349006720 -0.0145476672 0.1444989963
-0.0443687152 -0.0256246195 0.0923294473
-0.0419856840 -0.0256067624 0.1236612903
-0.0426039862 -0.0307467635 0.0480522457
-0.0452012734 -0.0251379627 0.0395457450
-0.0475735195 -0.0196093907 0.0635198419
-0.0435816248 -0.0291602278 0.0018446465
-0.0295399050 -0.0462172871 -0.0634364158
0.0256640310 0.0203573182 0.1710237501
-0.0226822618 0.0313120942 -0.1259989828
-0.0151289901 0.0330361268 -0.1560118004
-0.0106861909 0.0340501947 -0.1805585790
-0.0271508349 0.0287383358 -0.1691103080
0.0281255311 0.0172303551 0.1379195586
0.0243443783 0.0208923267 -0.2068047606
0.0109995077 0.0313462525 -0.0959999842
0.0000174766 0.0338527642 -0.1505183224
0.0011145292 0.0336023757 -0.1641347810
0.0307732168 0.0129136863 -0.1210705944
0.0312322450 0.0119604980 -0.1182716350
0.0010504085 -0.0530016670 -0.1353686317
0.0150731003 -0.0485572380 -0.1022971647
0.0159952760 -0.0478218276 -0.1486959612
-0.0031547092 -0.0539607766 -0.1809467742
0.0280431055 -0.0378585417 -0.0576647646
0.0337162550 -0.0261146923 -0.0634707208
0.0248476036 -0.0407623327 -0.1358345196
0.0338482874 -0.0248188473 0.0333955825
0.0299880731 -0.0328870732 0.0670919790
0.0348987557 -0.0225604162 0.0291429347
0.0361509994 -0.0180847000 0.0049344411
0.0361509994 -0.0144756704 0.0785509318
0.0361509994 -0.0158009543 0.0141493733
0.0301665348 -0.0328500854 0.0359200131
0.0317338870 -0.0298059498 0.0030049040
-0.0461581349 -0.0176864030 0.1257112362
-0.0462180828 -0.0237816258 -0.0294508472
-0.0441514012 -0.0275916636 0.0283924341
-0.0476850010 -0.0157499241 0.0610343518
-0.0476850010 -0.0155302741 0.0404266012
-0.0476850010 -0.0020389442 0.0737086105
-0.0387742988 -0.0383683326 0.0077504731
-0.0342599581 -0.0424438386 -0.0174266861
-0.0245261918 -0.0502158981 -0.1299287626
-0.0198447585 -0.0513443663 -0.1038607191
0.0291827844 0.0145127842 0.1645562848
-0.0124312079 0.0331779872 -0.1982502278
-0.0135726263 0.0330506598 -0.1934539920
-0.0290161119 0.0272504977 -0.1655619700
-0.0321455314 0.0247546349 -0.1284320950
-0.0379013892 0.0201640610 -0.1149628632
-0.0369939332 0.0208878009 -0.1295549118
0.0324974275 0.0083005603 0.1530095700
0.0247360067 0.0197137918 -0.2318126264
0.0274426738 0.0166210192 -0.2325858426
0.0046628642 0.0327908495 -0.1812458792
-0.0036411614 -0.0540724058 -0.1299378113
0.0049713944 -0.0520934586 -0.1826872418
0.0311701666 -0.0314744986 -0.1077533662
0.0310303413 -0.0310996025 0.0274107037
0.0345897581 -0.0240520737 -0.0343236349
0.0361509994 -0.0134012621 -0.0034594003
0.0361509994 -0.0111663638 0.0020610582
-0.0472206363 -0.0132398228 0.1089438171
-0.0467795607 -0.0153151725 0.1288315488
-0.0476850010 -0.0197747017 -0.0652298166
-0.0476850010 -0.0096568276 0.0352576713
-0.0476850010 -0.0171363824 -0.0018750722
-0.0476850010 0.0014270992 0.0254634446
-0.0476850010 -0.0003647540 0.0060903771
-0.0425201433 -0.0317942816 -0.0656568706
-0.0426240049 -0.0313117138 -0.0238290976
-0.0313611421 -0.0447644795 -0.1584443353
-0.0330917812 -0.0433841566 -0.1559068011
-0.0114546800 -0.0532598084 -0.1241328147
-0.0239591147 0.0304872792 -0.2003821579
-0.0001348838 0.0320544403 -0.2471813557
-0.0046445681 0.0339030528 -0.2176871539
-0.0309671898 0.0243162985 -0.2210088190
-0.0315499474 0.0252296418 -0.1715978411
0.0081148025 0.0309699623 -0.2184326678
0.0162179047 -0.0475065191 -0.1851726247
-0.0086562886 -0.0538633379 -0.1852281568
0.0330760606 -0.0275164884 -0.1133029970
0.0361509994 -0.0193104561 -0.0493920546
0.0361509994 -0.0098740693 -0.0176874851
0.0361509994 -0.0095312330 -0.0083742978
0.0361509994 -0.0013522624 -0.0276751870
-0.0463639232 -0.0035317146 0.1475652018
-0.0476850010 -0.0102024837 -0.0308573442
-0.0429370548 -0.0309861058 -0.0787963118
-0.0323694441 -0.0438392793 -0.1846804417
-0.0406699382 0.0152810569 0.1365501350
-0.0224086127 0.0297393850 -0.2400280799
0.0041408382 0.0283599519 -0.2577706840
0.0049308741 0.0271801281 -0.2612311563
-0.0405895086 0.0164750090 -0.1748096361
-0.0395219893 0.0186912995 -0.0575733109
-0.0407870279 0.0160650047 -0.0379577487
0.0121918989 0.0292470269 -0.2453935404
-0.0442858051 0.0085086255 -0.1858395021
-0.0349250222 0.0224144368 -0.1847638533
0.0283944450 0.0178534613 0.0743446657
0.0066040053 -0.0514039013 -0.2202520313
-0.0069644058 -0.0539172109 -0.1975251724
0.0361509994 -0.0182183302 -0.0657581850
-0.0476850010 -0.0159389012 -0.0665561309
-0.0476850010 -0.0075702664 -0.0695351491
-0.0396850444 -0.0377368482 -0.1052215023
-0.0440613546 0.0083419368 0.1467583188
-0.0078994103 0.0241285186 -0.2785666135
0.0052623836 0.0244106143 -0.2718125165
-0.0421886963 0.0131549579 -0.0835050810
0.0323028471 0.0088866871 0.1232831694
0.0310377847 -0.0317494376 -0.1805249718
0.0060977323 -0.0511074638 -0.2390240586
0.0289811403 -0.0326817141 -0.2405708960
0.0361509994 -0.0083893074 -0.0741977609
0.0361509994 -0.0143535068 -0.1655611187
0.0361509994 -0.0161014480 -0.1495717331
0.0361509994 -0.0031875439 -0.1421810942
0.0361509994 -0.0168619983 -0.1033366715
0.0361509994 0.0013323230 -0.1766032520
0.0361509994 -0.0039796210 -0.0802417048
0.0361509994 -0.0140062456 -0.0667137532
-0.0476850010 -0.0201831695 -0.1132224656
-0.0476850010 -0.0026078588 -0.0750471659
-0.0476850010 -0.0190790554 -0.1495943609
-0.0248483127 -0.0489075358 -0.2428533436
-0.0194048497 0.0232814262 -0.2757428371
0.0048297714 0.0177873479 -0.2967542905
-0.0436075017 0.0102093545 -0.0789188756
0.0322974308 0.0067130172 -0.2298274392
0.0360602713 -0.0100483378 -0.1845408282
0.0360439537 -0.0125074351 -0.1851442003
0.0354810734 -0.0225210925 -0.1782550416
0.0310957691 -0.0307188877 -0.2016671658
-0.0438721757 -0.0290463316 -0.1691955521
0.0140711080 -0.0454108351 -0.2647468539
0.0285529153 -0.0357079911 -0.2033217705
0.0359250094 -0.0215994074 -0.1342887672
-0.0444828689 0.0073443917 0.1493524840
-0.0471104922 -0.0223223169 -0.1525618971
-0.0476850010 0.0006417566 -0.1366453381
-0.0476850010 -0.0171607488 -0.1652620248
-0.0476850010 -0.0023795000 -0.0877073245
-0.0476850010 -0.0032364704 -0.1727890766
-0.0412945396 -0.0343980763 -0.1147545995
-0.0429611321 -0.0278871867 -0.2419981550
-0.0379742898 -0.0265501220 -0.2817099719
-0.0305440253 -0.0415330659 -0.2617018788
-0.0243099195 0.0234135176 -0.2667248831
0.0131753807 0.0191046824 -0.2805667822
-0.0429026027 0.0116733554 -0.0145901282
-0.0469336355 -0.0008913782 -0.2089226331
-0.0471479354 -0.0095472831 -0.2010117627
0.0353057281 -0.0164954358 -0.2124413422
0.0351726199 -0.0113474719 -0.2173632419
0.0329152997 0.0084673011 -0.0671383282
-0.0464791497 -0.0231878935 -0.1912128931
-0.0027062256 -0.0510892969 -0.2587423578
-0.0190085675 -0.0494909515 -0.2588925539
-0.0461997977 0.0048278914 0.0846118144
-0.0397555961 -0.0375933261 -0.1203548613
-0.0405792523 -0.0240288880 -0.2738629996
-0.0266628466 -0.0431965680 -0.2723155674
-0.0435928440 0.0102397647 -0.1149591863
-0.0462379339 -0.0022934044 -0.2346044309
-0.0464553145 -0.0207407776 -0.2265798349
-0.0424336524 0.0106250588 -0.2135881884
0.0361509994 0.0004514916 -0.0461012004
0.0234697981 -0.0332757164 -0.2785435738
0.0340599613 0.0060907907 -0.0336384134
-0.0308960481 -0.0339733514 -0.2969116525
-0.0422083426 -0.0185510670 -0.2688031363
-0.0166782619 0.0159388294 -0.2999647597
-0.0444453428 0.0084698863 -0.0272138283
-0.0435801757 0.0069983309 -0.2335729241
-0.0415723696 -0.0338201190 -0.1561422926
0.0211391193 -0.0280828777 -0.3005758165
-0.0467377631 0.0025019447 0.1307198107
-0.0432146111 -0.0098766674 -0.2632084494
-0.0370626991 -0.0066247069 -0.2956575340
0.0228175497 0.0172903463 -0.2612332038
0.0315254351 0.0032636342 -0.2576769920
-0.0043614108 -0.0428816461 -0.3075646695
-0.0093416081 -0.0469192791 -0.2940994369
-0.0463574369 0.0045002481 -0.0170831168
-0.0440029962 -0.0173924247 -0.2588205885
-0.0465106932 0.0041821104 -0.1463706220
-0.0459511587 -0.0065673731 -0.2451847751
-0.0090388719 -0.0449834869 -0.3002024226
0.0281076664 -0.0194487947 -0.2830904025
0.0250090899 -0.0192023215 -0.2973778247
-0.0387423884 0.0034130532 -0.2785200443
-0.0325856583 0.0164217408 -0.2704191573
0.0257407451 0.0126307853 -0.2639387416
-0.0131809224 -0.0357862363 -0.3260895971
0.0293306000 -0.0054506947 -0.2762894374
0.0332601839 -0.0028591308 -0.2544310999
-0.0404459195 0.0050520849 -0.2662796767
-0.0219860932 -0.0159146515 -0.3327242072
0.0324465751 -0.0150798335 -0.2589593744
0.0152081751 -0.0192244904 -0.3240595312
-0.0414849855 0.0146159050 0.0828885252
-0.0195786180 -0.0150829358 -0.3366234923
0.0130925085 -0.0144614895 -0.3284524437
-0.0469053431 0.0033628747 0.0070094752
0.0051917240 -0.0210139786 -0.3392347453
-0.0443469851 0.0086740874 0.0692286079
0.0355582499 0.0029775031 -0.1117217518
-0.0425929642 0.0123155569 0.0739851221
0.0015745131 -0.0012369146 -0.3299209239
0.0281385105 0.0183849827 0.0853320518
-0.0428605535 0.0117599262 0.0390931089
-0.0432514543 0.0109483240 0.0516407653
0.1243867349 -0.0299741507 -0.0762118576
-0.1356985950 -0.0328427480 -0.0333417524
0.1305266184 -0.0348419238 -0.0565559627
0.1059083163 -0.0330650343 -0.0525677553
0.1031970978 -0.0352409176 -0.0577052820
-0.1133089941 -0.0373887797 -0.0809959949
-0.0398867372 0.0138420152 -0.2467746104
-0.0086606385 0.0253316160 0.3088066061
-0.0178255951 0.0211470222 0.2938426815
0.0147316262 0.0082014139 0.2713869672
0.0222560371 0.0211449914 -0.2476076667
0.0340771605 0.0060547327 -0.1407222690
0.1339778047 -0.0412035705 -0.0650802096
-0.0393586246 0.0120181403 0.1928378358
-0.0461937810 -0.0001655912 0.1552855550
-0.0888499990 -0.0314114901 0.0056869175
-0.1740823004 -0.0161196200 0.0499806566
0.1186710000 -0.0271970697 -0.0017374088
0.1149540022 -0.0284845820 -0.0576542484
-0.0963279977 -0.0310453903 0.0071286854
-0.1802790016 -0.0203945241 0.0255046429
0.1168109998 -0.0230927106 -0.0668312856
-0.1302019954 -0.0270690415 -0.0578881041
-0.1221071849 -0.0297768014 -0.0840016245
0.1341767716 -0.0499995256 -0.0830295709
-0.1106552680 -0.0460828801 -0.0806471962
0.1138602612 -0.0624017142 -0.0899469469
0.0158010468 -0.0347111650 0.1702599972
-0.0402920017 -0.0205535933 0.1762476765
0.0267316139 -0.0264713065 0.1682988418
-0.0022563179 -0.0156368916 0.1702599972
-0.0090631833 -0.0212992697 0.1702599972
-0.0435549091 -0.0037182819 0.1702599972
-0.0433293009 -0.0042245623 0.1702599972
-0.0225468384 -0.0074389411 0.1702599972
0.0199638747 0.0215898922 0.1702599972
-0.0178835802 -0.0000407494 0.1702599972
0.0298054339 -0.0035871897 0.1702599972
-0.0031650701 0.0202405511 0.1702599972
0.0274323063 0.0138230036 0.1702599972
0.0055260833 0.0163366143 0.1702599972
-0.0250973697 0.0117522296 0.1702599972
0.0319488651 0.0062056570 0.1702599972
-0.0071377511 0.0223844851 -0.1811860055
-0.0350102587 -0.0388221362 -0.1811860055
-0.0403126399 0.0064682077 -0.1811860055
-0.0171575598 0.0168273419 -0.1811860055
-0.0038265977 -0.0493048249 -0.1811860055
0.0230511563 0.0046770426 -0.1811860055
-0.0068230929 0.0084439566 -0.1811860055
0.0025138662 0.0276648297 -0.2484840006
-0.0065979797 -0.0042486545 -0.1811860055
-0.0036716125 -0.0008185303 -0.1811860055
0.0163537708 -0.0084645278 -0.1811860055
-0.0161565804 -0.0276810913 -0.1811860055
-0.0082410862 -0.0464386788 -0.2484840006
-0.0101263072 0.0259402953 -0.2484840006
-0.0310395921 -0.0178033469 -0.1811860055
-0.0337870337 -0.0100197207 -0.1811860055
0.0050382740 -0.0169878680 -0.1811860055
0.0203094437 -0.0253643899 -0.1811860055
0.0231633296 -0.0213623486 -0.1811860055
-0.0278180000 -0.0379889352 -0.2484840006
-0.0168763454 0.0179986048 -0.2484840006
-0.0347376632 -0.0353644611 -0.2484840006
0.0140082806 -0.0320776333 -0.2484840006
-0.0025914569 0.0158119839 -0.2484840006
-0.0012864290 0.0019869685 -0.2484840006
-0.0171944538 0.0113851165 -0.2484840006
-0.0199618210 0.0091160255 -0.2484840006
-0.0209987981 -0.0018788711 -0.2484840006
-0.0051246596 -0.0049756424 -0.2484840006
0.0036659394 -0.0101274355 -0.2484840006
-0.0150363749 -0.0200765599 -0.2484840006
0.0013731387 -0.0149736528 -0.2484840006
0.0098121925 -0.0057017010 -0.2484840006
0.0849216162 0.0177407584 0.2622471608
-0.0480330609 0.0104983346 0.2298070902
-0.0868902492 0.0167325910 0.2548262677
-0.0870922720 0.0192015163 0.2569661707
-0.0463730844 0.0044676598 -0.0950292170
-0.0448199825 0.0076921735 -0.1200190141
0.0005799331 0.0115171917 -0.3083322032
-0.0202728208 0.0080136133 -0.3090720537
0.0202072745 0.0045748990 -0.2995353875
-0.0301765560 0.0063920193 -0.3011259559
0.0814303498 -0.0277325797 0.0325102037
-0.1754510180 -0.0171753547 0.0595364174
-0.1732121125 -0.0239662391 0.0288797538
0.2225542025 -0.0123437151 0.0761115225
-0.2364817265 -0.0184244970 0.0425721557
0.0704688003 -0.0209438288 0.0067042984
0.0407468874 -0.0242288706 0.0098741387
0.0756619987 -0.0238985814 0.0165750002
-0.0795437536 -0.0210388413 0.0065743361
-0.0558653312 -0.0232987777 0.0083066343
0.1349739865 -0.0160667594 0.0284823598
-0.0748119308 -0.0235929042 0.0116206290
-0.0687746989 -0.0259650770 0.0172374580
-0.1341911168 -0.0165825133 0.0203891850
-0.1374395080 -0.0162999676 0.0220573282
-0.2215099469 -0.0063130260 0.0565545942
0.1921315114 -0.0110845560 0.0578066682
0.1182738300 -0.0159536408 0.0149189486
-0.2009843575 -0.0095205392 0.0507060837
-0.1452015443 -0.0143223690 0.0218960487
-0.3042050695 0.0015938136 0.0967170373
0.3228733064 0.0045734298 0.1109106273
0.1626606778 -0.0113971977 0.0355015943
0.2431409091 -0.0030465808 0.0721682928
-0.3237533957 0.0039788356 0.1035510709
-0.2843096066 -0.0011646793 0.0899739478
0.2524342339 -0.0026462968 0.0786083531
0.3387162538 0.0062435640 0.1177997659
-0.2407565223 -0.0066452067 0.0729969593
0.0205874914 0.0022158310 -0.3006696918
-0.0052186761 -0.0046705881 -0.3412001569
0.1225626654 -0.0293886316 -0.0820354966
0.1148828401 -0.0287162967 -0.0807750411
-0.1346663617 -0.0315284686 -0.0382797035
-0.1391986548 -0.0321661070 -0.0776041427
-0.1368497683 -0.0314663706 -0.0868253783
-0.1307027155 -0.0306327369 -0.0923264056
-0.1218520720 -0.0296179000 -0.0755554615
-0.1172794317 -0.0326015368 -0.0756488286
-0.1149529460 -0.0350763575 -0.0834044717
-0.1463534074 -0.0454386764 -0.0609251822
-0.1463488662 -0.0469915257 -0.0777809972
-0.1134867977 -0.0402632149 -0.0415950138
0.1292804178 -0.0586497059 -0.0877446656
0.1042576978 -0.0552414880 -0.0386878668
-0.1134965574 -0.0489148490 -0.0355270637
0.1279470335 -0.0600738072 -0.0804580068
0.1095334860 -0.0623460061 -0.0755269743
-0.1135161048 -0.0553312521 -0.0607621940
0.1118501679 -0.0630672137 -0.0831640838
-0.1209575671 -0.0605504349 -0.0435034036
0.1167515736 -0.0341998052 -0.0187290756
-0.1270715267 -0.0329874827 -0.0281902997
-0.1226543475 -0.0378257099 -0.0088139107
-0.1182943549 -0.0408524396 -0.0165088818
-0.1170633472 -0.0502409419 -0.0218544414
-0.1262416099 -0.0586170419 -0.0246740251
-0.1352669420 -0.0344652364 -0.0276487597
0.1284859124 -0.0452139372 -0.0165008696
0.1050147382 -0.0452414404 -0.0199185090
-0.1366605549 -0.0532205660 -0.0127318211
0.1211453381 -0.0575300404 -0.0210172279
-0.1214095382 -0.0557257466 -0.0196391352
-0.1459842939 -0.0435818702 -0.0578665320
-0.1421269104 -0.0556683224 -0.0470174798
0.0993961120 -0.0468113621 -0.0553634946
0.1037472849 -0.0527482197 -0.0297106335
-0.1141184477 -0.0500800255 -0.0319174990
0.1327254264 -0.0543857728 -0.0741096031
0.1203220646 -0.0608920653 -0.0331742103
-0.1286418215 -0.0641234132 -0.0784724422
-0.1282696562 -0.0636150224 -0.0526545127
-0.0047205368 0.1202524690 0.2753658273
-0.1371498657 -0.0492659140 -0.0747295524
-0.1171272412 -0.0538493060 -0.0701308587
-0.1311856391 -0.0599259805 -0.0696488888
-0.0071175877 0.1103359524 0.2707090580
0.1249092722 -0.0393939348 -0.0732190645
0.1133027214 -0.0440337505 -0.0812194925
0.1143034132 -0.0396783854 -0.0779263869
-0.0072799656 0.0763418621 0.2463945328
