-0.1320445945 -0.0473396403 -0.0120439883
-0.1316757844 -0.0431962495 -0.0136136451
-0.1199479693 -0.0442235573 -0.0289374036
0.1152941457 -0.0391020207 -0.0228836501
0.1192257600 -0.0430299097 -0.0117557471
0.1089523235 -0.0453483109 -0.0260128448
-0.0044040442 0.0710884175 0.3024674271
-0.0060602138 0.0714528156 0.3073045730
-0.0075805236 0.0958921900 0.3054720328
-0.0076042326 0.1111226846 0.3084818479
-0.0080793552 0.0644149148 0.2967250461
-0.0011060000 0.0446580795 0.2727857830
-0.0012291288 0.0273768270 0.2843976185
0.0092268081 0.0224867689 0.2734583998
0.0050662303 -0.0117406327 0.2700888421
-0.0338503637 -0.0039253547 0.2427272316
-0.0208384184 0.0205815214 0.2802613941
0.0136673458 -0.0145244417 0.2457452732
0.0191330327 -0.0135433307 0.2355648807
-0.0301968110 -0.0138001480 0.2364295807
-0.0168262637 -0.0210437443 0.2443260414
-0.0282283148 0.0048142012 0.2639962033
-0.0268084169 0.0160382755 0.2608095094
-0.0038831877 0.0806558610 0.3020325762
-0.0038489507 0.1418184914 0.3144045836
-0.0047190109 0.0545258638 0.3005214773
-0.0076035567 0.0910938522 0.3043827272
-0.0022982748 0.1099858132 0.2993269080
-0.0092247851 0.0873421090 0.2961519433
-0.0012795799 0.0573446900 0.2762365578
-0.0063728230 0.1687870026 0.3202873431
-0.0089575167 0.0677624119 0.2933693527
-0.0018251473 0.0855284397 0.2868730440
-0.0090210948 0.1209326560 0.2994372277
-0.0047711229 0.0274170926 0.2956276215
-0.0092786657 0.1076483031 0.2871381002
-0.0102732108 0.0562263439 0.2735612110
-0.0082760376 0.1588178041 0.3070078830
-0.0049430475 0.0251199896 0.3129298349
-0.0059652340 0.1194414414 0.2672097400
-0.0092686175 0.0274020790 0.2881588968
-0.0056008425 0.1556656618 0.2944347384
-0.0051482923 0.1212591349 0.2725345262
-0.0067717843 0.0975383284 0.2581411831
-0.0070908234 0.1201339256 0.2783109517
-0.0008100949 0.0297047200 0.2462668156
-0.0058406395 0.0779998660 0.2345414541
-0.0104250005 0.0391567675 0.2528432591
-0.0148836792 -0.0029793793 0.2944046799
0.0029940235 0.0289116966 0.2498081221
-0.0075292552 0.0509954114 0.2298834462
-0.0085775939 0.0799984736 0.2617746820
-0.0195238669 0.0223781235 0.2811797097
0.0074209584 0.0009526501 0.2922383642
-0.0174648308 -0.0065291916 0.2815000750
0.0056356704 0.0296813236 0.2318647559
-0.0211729028 0.0268545183 0.2402635088
0.0150675453 -0.0163602352 0.2382917295
0.0202720415 -0.0122614724 0.2346220347
-0.0293815693 -0.0043141967 0.2554867550
-0.0105278675 -0.0137050174 0.2710257002
-0.0086542978 0.0425455383 0.2200119338
0.0013573070 -0.0323772460 0.2050046732
0.0208984888 -0.0129271255 0.2315279161
-0.0240514504 0.0076381802 0.2797065939
-0.0235497057 -0.0220602649 0.2291861415
0.0101743500 0.0279526838 0.2278090475
0.0043532312 -0.0386481791 0.1755694839
0.0145539384 -0.0328019917 0.1825493866
0.0948397381 0.0168505490 0.2860003974
0.0990971811 0.0176930218 0.2897870759
0.0494367003 0.0084328086 0.2527624003
0.1060469831 0.0190574807 0.2958324503
0.0409687994 0.0075737473 0.2555255362
0.0606930693 0.0111655628 0.2691446364
0.0395136688 0.0071256225 0.2522119160
0.1079829727 0.0194425615 0.2975793643
0.0183484484 0.0101165408 0.2840429318
0.0427221193 0.0124067087 0.2878200014
0.0929335394 0.0178778157 0.2976616670
-0.0223851840 0.0138188852 0.2859754756
-0.0577849792 0.0080678204 0.2532715266
-0.0961092404 0.0150809615 0.2801651400
-0.0397261255 0.0052641992 0.2469155199
-0.1301404462 0.0209888812 0.3000169080
-0.0993075012 0.0158048581 0.2841571484
-0.0685799405 0.0098904943 0.2589211397
-0.0633962766 0.0097438816 0.2653936602
-0.0386390892 0.0057070606 0.2542433884
-0.0922272864 0.0161540489 0.2941951732
-0.0439652643 0.0086998762 0.2787290996
-0.0524007424 0.0139247537 0.2921624058
-0.0302916181 -0.0233639168 0.2047799020
-0.0175234819 -0.0295054515 0.2126818217
-0.0039351296 0.0356717270 0.1891988691
-0.0052040386 -0.0472485536 0.1358493180
0.0241670984 -0.0320834195 0.1452071738
0.0647641171 0.0109112340 0.2594027439
0.0684764620 0.0175267143 0.3010829723
0.0926517677 0.0197475641 0.3035498616
-0.0608991854 0.0165258106 0.2945316602
-0.0543736740 0.0155226990 0.2939946799
-0.1479926030 0.0248532432 0.3165614049
-0.0585378389 0.0075850475 0.2459756242
-0.0251998786 -0.0369149820 0.1699540590
-0.0062258470 -0.0537909549 0.0924124123
0.0217620164 0.0199389659 0.2107684050
-0.0037871809 -0.0533121828 0.0932894143
0.0275678168 0.0028855172 0.2160380871
0.0465223307 0.0074017437 0.2442952411
0.1097641643 0.0191238138 0.2902471069
0.0960019467 0.0206814403 0.3085081061
0.0744913459 0.0190639002 0.3011151881
0.1170466399 0.0250565346 0.3066943579
-0.0461226842 0.0169849867 0.2831511073
-0.0285433295 0.0124175867 0.2613269874
-0.0134158232 -0.0484491068 0.1170692833
-0.0231333392 -0.0441647947 0.1308364813
0.0176713250 -0.0396092128 0.1298537562
0.0559821144 0.0102935062 0.2467290531
0.0571618358 0.0191556635 0.2897433810
0.1030824031 0.0243113237 0.3003730423
-0.0654750446 0.0182083221 0.2911993109
-0.1331687344 0.0251423431 0.3091109923
-0.0860645580 0.0125080586 0.2607362712
-0.1409653552 0.0225631195 0.2950511739
-0.0590408212 0.0086034603 0.2415297368
-0.0285541426 -0.0401249266 0.1301573008
0.0177566212 -0.0416174036 0.1165397625
0.0323181467 0.0183477308 0.2636431284
0.0394544466 0.0190006095 0.2653243555
0.0429167290 0.0190993308 0.2794528644
0.0215874706 0.0176459717 0.2440211585
0.0708489485 0.0219527044 0.2678171855
0.0844358414 0.0231369806 0.2746153088
0.0561384655 0.0206270799 0.2631260725
0.0571292990 0.0207715456 0.2600664946
0.0615268709 0.0210807143 0.2667910154
-0.0371424967 0.0176051918 0.2699339552
-0.0739194970 0.0208699657 0.2846919553
-0.1491900801 0.0279193261 0.3050344005
0.0546036134 0.0139407110 0.2411222268
0.0829472971 0.0230326278 0.2688346117
0.0691243122 0.0218842675 0.2591559139
-0.0632469667 0.0200618001 0.2719046967
-0.0445634601 0.0188616174 0.2364104109
-0.0989104101 0.0231693806 0.2897330104
-0.0490873164 0.0192079669 0.2415970313
-0.1352061624 0.0263699279 0.3056345250
-0.0987545349 0.0233186347 0.2797334362
-0.0387613661 -0.0271773068 0.1565593806
0.0619277650 0.0205086925 0.2510926948
-0.1035983667 0.0237666466 0.2721825449
-0.1183732763 0.0249869352 0.2816054788
-0.1259309620 0.0216997434 0.2809842618
0.1145661559 0.0238233631 0.2829036718
-0.0463080854 0.0156816960 0.2309617717
-0.1429917270 0.0261423054 0.2943851688
-0.0063325984 -0.0544281738 0.0005211513
-0.0017409137 -0.0537553636 -0.0693657404
-0.0439724441 0.0070797612 0.1743889012
0.0024161576 -0.0530986533 -0.0898857691
0.0260438929 -0.0483210331 -0.0091249703
-0.0090568929 -0.0541272863 -0.0536463464
0.0145429249 -0.0470309320 -0.1044168375
0.0132234909 -0.0530476921 -0.0291271863
-0.0083503516 -0.0541397104 -0.0337432765
0.0173956637 -0.0517013736 -0.0662446007
0.0347718137 -0.0421026370 -0.0275064444
-0.0348991305 -0.0500074971 -0.0707658534
0.0174357939 -0.0513027333 -0.0929100913
0.0403677397 -0.0390941284 -0.0276076341
0.0640429764 -0.0348194680 -0.0183920105
0.0467324930 -0.0367667860 -0.0062808362
0.0550109735 -0.0355465183 -0.0074492628
-0.0303585154 -0.0513126372 -0.0207011378
-0.0290786426 -0.0487340382 -0.1007747829
0.0203579215 -0.0485278854 -0.0999429163
0.0384432480 -0.0291153254 0.0173503914
0.0708239090 -0.0334750302 -0.0138309703
0.0544941989 -0.0373335948 -0.0848424967
0.0837267695 -0.0334269164 -0.0655353750
0.0495890066 -0.0384569317 -0.0782616422
0.0435275043 -0.0404043782 -0.0583879831
-0.0416375575 -0.0464381176 -0.0304011258
-0.0234365747 -0.0534556539 -0.0125145004
-0.0437389914 0.0089309459 0.1351609426
0.0520976600 -0.0253998910 -0.0953049983
0.0757998351 -0.0188197396 -0.0752225999
0.0773717783 -0.0317941857 -0.0033135136
0.0409989726 -0.0385016015 -0.0956845391
0.0849180189 -0.0336082585 -0.0556345069
0.0812975758 -0.0345044729 -0.0422447324
0.0549599313 -0.0167384414 -0.0609372615
0.0644685908 -0.0169818165 -0.0725895235
0.0416929015 -0.0177858011 -0.0738108539
0.0497182699 -0.0179165649 -0.0820775430
-0.0708980752 -0.0179392335 -0.0233607309
-0.0577230138 -0.0200691078 -0.0024509576
-0.0843249736 -0.0183343755 -0.0036102916
-0.0747004957 -0.0177850659 -0.0220254877
-0.0977946217 -0.0178172779 0.0015841327
-0.0464564175 -0.0417778143 -0.0247851458
-0.0566193950 -0.0291600466 0.0153799310
-0.0509964492 -0.0406713245 -0.0668730731
-0.0776507524 -0.0360055664 -0.0724330196
-0.0773297201 -0.0366873703 -0.0592326265
-0.0925354282 -0.0338687194 -0.0656990227
0.0849628318 -0.0190806935 -0.0703448017
0.0802637086 -0.0295045327 0.0047500247
0.0744241715 -0.0341238824 -0.0277047768
0.0797407065 -0.0333955954 -0.0263004530
0.1038695551 -0.0308209549 -0.0412694704
0.0374200626 -0.0172978900 -0.0555683106
0.0436400950 -0.0178551856 -0.0404300694
0.0541032165 -0.0174535460 -0.0363949974
0.0730935359 -0.0181439336 -0.0063572096
0.0625308646 -0.0184707425 -0.0116893587
0.0811954473 -0.0151219262 -0.0490721984
0.0898054507 -0.0147076424 -0.0471637033
0.0361509994 -0.0038767634 -0.0453561596
-0.0551049681 -0.0175556109 -0.0702678805
-0.0679171276 -0.0172861314 -0.0734206828
-0.0774905669 -0.0171419629 -0.0769777515
-0.0856805165 -0.0171590037 -0.0209874537
-0.0762073716 -0.0158944146 -0.0418412202
-0.1022023987 -0.0159296976 -0.0155286663
-0.0726706326 -0.0245311788 -0.0893413883
-0.0685057285 -0.0224586302 -0.0895334259
-0.0854474732 -0.0320399473 0.0013857309
-0.0710952558 -0.0347601552 -0.0062542078
-0.0588569677 -0.0377262557 -0.0231129806
-0.0883152596 -0.0300064235 0.0048265359
-0.0584746023 -0.0280145035 0.0174000071
-0.0923868460 -0.0336589348 -0.0698631108
-0.0996892331 -0.0330916608 -0.0546884527
-0.1019191073 -0.0326178023 -0.0593951861
0.0344230869 0.0053353868 -0.1669804862
0.0532348330 -0.0273002499 0.0176251049
0.0772435603 -0.0259087527 0.0147025524
0.0911727240 -0.0298061160 -0.0050708998
0.0796574442 -0.0288812499 -0.0779773380
0.0924435876 -0.0160036832 -0.0130904135
0.0936691803 -0.0154759016 -0.0166146327
0.0856232925 -0.0160336722 -0.0196404818
0.1915809789 -0.0062241924 0.0042204936
0.1162982837 -0.0131223156 -0.0417180051
0.1677152861 -0.0073145207 0.0061079784
0.2103141180 -0.0038952934 0.0248395003
0.1669595122 -0.0075907557 0.0025413764
0.1860612307 -0.0064194875 0.0055104237
0.0998916829 -0.0146907856 -0.0527068357
0.1265543876 -0.0115246448 -0.0255888652
0.1366486689 -0.0103731847 -0.0160305974
0.1189409533 -0.0120980347 -0.0283708949
0.1244546005 -0.0116521984 -0.0258972389
-0.0837179593 -0.0154902141 -0.0500906454
-0.1063250323 -0.0152854357 -0.0583278966
-0.1625448103 -0.0107881076 0.0181155613
-0.2113651785 -0.0061073684 0.0425202216
-0.1716173462 -0.0100162059 0.0235322439
-0.1128364666 -0.0157375676 -0.0050808226
-0.2037034069 -0.0066989294 0.0374030548
-0.1401235055 -0.0115978688 -0.0051511229
-0.1636226709 -0.0097392742 0.0101454540
-0.0843454503 -0.0329070672 -0.0097212888
-0.0694661527 -0.0339461623 -0.0888496159
-0.1010375521 -0.0331220570 -0.0332985406
-0.0698361323 -0.0369695146 -0.0376977454
-0.1226140685 -0.0300068870 -0.0258842008
0.1060046402 -0.0262508072 -0.0594212198
0.1503542290 -0.0210304398 0.0270133791
0.1059163789 -0.0231899611 0.0174338431
0.1154284950 -0.0288446903 -0.0469685257
0.1635492765 -0.0086809476 0.0162353169
0.1648853656 -0.0089184102 0.0201930890
0.1335244564 -0.0124301941 0.0090606159
0.1386504346 -0.0115931599 0.0085131137
0.0998452178 -0.0156173581 -0.0081525320
0.1902757438 -0.0076419543 0.0433060544
0.1210278539 -0.0147347137 0.0127704839
0.2648954541 0.0009782310 0.0663174474
0.1612650464 -0.0079526348 0.0063383095
0.3094809878 0.0048196178 0.0921370913
0.2562524008 0.0004553630 0.0580834607
0.3249343452 0.0063452696 0.0897668140
0.1747735944 -0.0078976168 -0.0082221941
-0.3365696748 0.0065973133 0.0945539221
-0.1808279957 -0.0083726674 -0.0109764178
-0.1851570468 -0.0073850930 0.0005307247
-0.1880231251 -0.0074039020 -0.0019426396
-0.2568153434 -0.0004043697 0.0504798743
-0.1971430002 -0.0057666520 0.0156490478
-0.1746317898 -0.0084142298 -0.0068628757
-0.2866740046 0.0018480355 0.0614456814
-0.2629284112 0.0000999637 0.0533729411
-0.2014152416 -0.0061574934 0.0065189665
-0.1413470191 -0.0108111756 -0.0105643556
-0.2771720157 0.0002826907 0.0746853382
-0.1429822749 -0.0109029893 -0.0075090126
-0.2859485868 0.0015604161 0.0751445549
-0.2777286300 -0.0001753636 0.0795676606
-0.0800260628 -0.0340283857 -0.0168615994
-0.1555962198 -0.0185391115 0.0335859385
-0.1346427114 -0.0199652304 0.0279130681
-0.1071820708 -0.0289881561 -0.0020477402
-0.1107729887 -0.0312160138 -0.0569348626
0.1082848739 -0.0188565291 -0.0572983362
0.1126216625 -0.0276765361 -0.0037245049
0.1917062889 -0.0058591251 0.0292110452
0.2478293184 -0.0015177687 0.0666220595
0.2222571131 -0.0033171513 0.0479673743
0.2557218822 -0.0004399641 0.0676779084
0.2082345561 -0.0041436401 0.0362962972
0.2959612800 0.0035298497 0.0692322415
0.2920469309 0.0031641592 0.0668131569
-0.2532838271 -0.0009919715 0.0525681156
-0.3408839256 0.0064757836 0.1044560885
-0.2576824874 -0.0005563526 0.0542908018
-0.3496860452 0.0075144666 0.1054727158
-0.1559131582 -0.0107950548 -0.0284113636
-0.2925084291 0.0022358232 0.0625337509
-0.0900500083 -0.0227050717 -0.0776507629
-0.1470036614 -0.0216870383 0.0239920307
-0.0949486858 -0.0271204101 -0.0771691103
-0.1132508401 -0.0300711390 -0.0167857404
-0.1183181281 -0.0294939334 -0.0155366136
0.2552150679 -0.0028624497 0.0366688266
0.1286144812 -0.0128881448 -0.0405202923
0.1031840867 -0.0154461974 -0.0565726164
0.2036962879 -0.0113064981 0.0008686016
0.1287081842 -0.0185635500 -0.0461781838
0.1441688343 -0.0195781270 0.0306454034
0.1576752428 -0.0203503846 0.0271213290
0.2130048018 -0.0046365646 0.0129455474
0.2287813715 -0.0039558736 0.0215716546
-0.2709023553 0.0000394019 0.0448765156
-0.2128226017 -0.0054720264 0.0069142964
-0.1640617300 -0.0206791022 0.0281777998
-0.1229051640 -0.0292931410 -0.0508934741
0.1407830240 -0.0235632960 -0.0344674282
0.1701149863 -0.0199121951 -0.0152918364
0.2585530370 -0.0059313280 0.0385045121
0.3286901729 0.0038064360 0.0829939745
0.3184281594 0.0015652158 0.1021966781
0.3380182294 0.0037680362 0.1045290340
0.3094076150 0.0015057830 0.1036317851
0.2141491596 -0.0099009502 0.0635251577
-0.2085193167 -0.0059784478 0.0031275041
-0.3124864219 0.0025261860 0.0665206039
-0.2021661855 -0.0135104165 0.0514639063
-0.1165994432 -0.0275856896 0.0029738716
-0.0475860517 0.0019504475 -0.1551277027
0.2670344779 -0.0058778674 0.0455816047
0.1459285984 -0.0228235137 0.0140127792
0.1261342419 -0.0267555770 -0.0059577671
0.1851852999 -0.0187923550 0.0031652201
0.1919011309 -0.0178769847 0.0103695036
0.2652648822 -0.0070246774 0.0504727057
0.2639943603 -0.0072053360 0.0494485826
0.1270802971 -0.0273569369 -0.0299810315
0.2143138829 -0.0145289491 0.0211439961
0.2561458326 -0.0084721947 0.0499497156
0.2662370951 -0.0068008179 0.0473814312
0.2286581972 -0.0105807324 0.0615672990
0.2879510822 -0.0013102082 0.0936209642
0.2285441441 -0.0074663503 0.0720320551
0.2813915877 -0.0047862154 0.0675649931
0.1930195736 -0.0136652658 0.0512086295
-0.3251981912 0.0005648081 0.0948450291
-0.3533290890 0.0041979074 0.1050527426
-0.3141014898 0.0010914058 0.1025400332
-0.1337263737 -0.0181706087 -0.0492352854
-0.2580861126 -0.0027900783 0.0321506230
-0.1344750306 -0.0178073036 -0.0484730913
-0.1358927053 -0.0189997756 -0.0489208499
-0.2295918213 -0.0084697077 0.0686708096
-0.1296103618 -0.0278404808 -0.0094535125
0.2977783461 -0.0022950106 0.0719237734
0.2642118871 -0.0061096680 0.0727048278
0.2886038977 -0.0035673630 0.0761993186
0.2179813002 -0.0117034453 0.0587111339
-0.2434597599 -0.0110666563 0.0528456228
-0.2599538394 -0.0088475210 0.0599720460
-0.3050687902 -0.0029655777 0.0726664743
-0.2543404967 -0.0101439723 0.0319224820
-0.2957266713 -0.0039751787 0.0577051040
-0.1535569920 -0.0216754850 -0.0359985232
-0.2902956645 -0.0021148013 0.0499577715
-0.2067606238 -0.0162611798 0.0004164153
-0.1385085135 -0.0211123924 -0.0491305993
-0.1450721800 -0.0257368594 -0.0025561485
-0.1342905545 -0.0278711020 -0.0133666518
-0.2175988937 -0.0157486303 0.0166261324
-0.2531284295 -0.0106146938 0.0415560885
-0.2621289306 -0.0091414018 0.0400535035
-0.2104842335 -0.0169454672 0.0192729341
-0.2110929027 -0.0166855266 0.0119160549
-0.2410613816 -0.0122127078 0.0264972761
-0.2084862721 -0.0171699093 0.0149627769
-0.3450656987 0.0030238441 0.0900525449
0.1926544874 -0.0155860507 0.0432979456
0.1832167032 -0.0171752005 0.0357988304
0.2567040963 -0.0072986067 0.0674617492
0.3079410765 -0.0004475582 0.0892168442
-0.2833976843 -0.0046303171 0.0826468096
-0.2573388734 -0.0097356534 0.0540166245
-0.2797474363 -0.0044320657 0.0832356309
-0.2926653543 -0.0030091816 0.0882742408
-0.1906107030 -0.0191350369 0.0213954695
-0.1464378511 -0.0260805793 -0.0067117567
-0.1930375046 -0.0183772808 0.0263242709
-0.1761608865 -0.0205968357 0.0194909943
-0.2860767444 -0.0057487932 0.0600081955
0.2151757388 -0.0146037015 0.0317115508
0.2161269609 -0.0140073989 0.0386897729
-0.2366514454 -0.0121653198 0.0482620625
-0.1893289854 -0.0179484562 0.0330714785
0.1731715938 -0.0200896921 0.0174055472
0.1343083354 -0.0263437560 -0.0086138006
-0.1283439994 -0.0267490849 -0.0534633686
-0.2182936278 -0.0138290713 0.0475814494
-0.1264860034 -0.0275008259 -0.0796935438
-0.0037964607 0.1482855821 0.3154879046
-0.0026691139 0.1291610501 0.2946766442
-0.0014743099 0.0674004569 0.2741524599
-0.0058491295 0.1687870026 0.3202506677
-0.0021395122 0.1017668105 0.2811783360
-0.0088667664 0.1289073529 0.3023505210
-0.0093512834 0.1039087185 0.2832540944
-0.0102863321 0.0555435372 0.2762849095
-0.0098912774 0.0759867601 0.2773272855
-0.0044426186 0.1041096143 0.2765489046
-0.0051082534 0.0979919212 0.2726259534
-0.0104250005 0.0335936383 0.2461402247
-0.0028218314 0.0574317822 0.2466084527
-0.0116507981 0.0295865274 0.2459579899
-0.0184618893 0.0266099777 0.2572624351
-0.0047500661 -0.0399385412 0.1789036745
0.0109754993 -0.0337326185 0.1895746366
-0.0237237637 -0.0233718996 0.2238864226
-0.0175996735 -0.0252893321 0.2304521791
0.0078053862 -0.0282223830 0.2163593839
0.0146952781 -0.0345486857 0.1757552082
-0.0314985835 -0.0296297385 0.1783675374
-0.0168302671 -0.0341136587 0.1938482033
-0.0268444323 0.0244408787 0.2208073693
0.0005915191 -0.0441214019 0.1478709331
0.0270503611 -0.0007893337 0.2195420919
-0.0395421557 -0.0233065899 0.1722203309
-0.0063629596 -0.0477120981 0.1327101495
-0.0162746220 -0.0403998149 0.1663554273
0.0123231831 -0.0433466753 0.1351898683
0.0264805187 0.0007346925 0.2233988883
-0.0381767576 0.0052204098 0.2222867849
-0.0128220021 -0.0508971558 0.1016615920
-0.0359936942 0.0102322034 0.2313882081
0.0262185549 0.0121275458 0.2065393830
-0.0248452906 -0.0429046086 0.1329408750
0.0058722205 -0.0519009491 0.0828684231
-0.0376716915 0.0106653966 0.2138212667
0.0021646577 -0.0527475971 -0.0123776447
-0.0008244757 -0.0534291540 0.0679049991
0.0178201204 -0.0450381113 0.0943197641
-0.0062735091 -0.0544413947 0.0087192586
0.0098975644 -0.0509822247 -0.0107042218
0.0058136524 -0.0519145688 -0.0344890176
0.0206795365 -0.0438633814 0.0383857317
0.0134437866 -0.0498569951 0.0078538272
0.0149595587 -0.0485271172 0.0846858961
-0.0355556012 -0.0407636176 0.0696305953
-0.0176035991 -0.0518555580 -0.0601547449
-0.0178235379 -0.0518054192 0.0130980715
0.0132874945 -0.0499812213 -0.0736898611
-0.0155027436 -0.0523352476 0.0410869216
-0.0264025085 -0.0487205991 0.0255231225
-0.0123433680 -0.0530562570 -0.0414675200
0.0251959034 -0.0404845729 -0.0802658974
-0.0325105634 -0.0438485708 -0.0326251670
-0.0126916569 -0.0536696847 -0.0720438224
0.0108693239 -0.0507600479 -0.1070212658
0.0219325550 -0.0430870061 -0.1648060878
0.0081389929 -0.0513831298 -0.1547841367
0.0060360105 -0.0541296147 -0.0496891576
0.0244542353 -0.0410760334 -0.1327750971
-0.0272433038 -0.0480487843 -0.0838264854
-0.0291471205 -0.0465303385 -0.1397390700
-0.0195710682 -0.0526884302 -0.0972903605
-0.0050326467 -0.0543896005 -0.1456364148
0.0066600272 -0.0517174358 -0.1815720711
0.0306777269 -0.0464956828 -0.0494080132
-0.0403941955 -0.0360256376 0.0161717497
-0.0356246406 -0.0413639990 -0.1739716469
-0.0087993544 -0.0538653877 -0.1519769452
-0.0217008301 -0.0509202034 -0.1757529842
0.0142380381 -0.0524214866 -0.0757743350
0.0180773939 -0.0452441854 -0.2083544235
0.0366786736 -0.0395568088 -0.0181191934
-0.0379370837 -0.0376294350 -0.2357750128
-0.0259981697 -0.0521471052 -0.0901119768
0.0162578584 -0.0515681662 -0.0967309046
0.0187545976 -0.0441365267 -0.2392339851
-0.0113449803 -0.0526652310 -0.2180967675
-0.0368620373 -0.0487853626 -0.0164306064
-0.0292721774 -0.0453160001 -0.2222608406
0.0034351973 -0.0516749555 -0.2334914601
0.0169315547 -0.0451721131 -0.2510529120
0.0075372338 -0.0541515359 -0.0127376921
-0.0241021506 -0.0532029323 -0.0372366566
-0.0465180228 -0.0429612037 -0.0709693868
0.0117619727 -0.0457196673 -0.2751088893
0.0294788127 -0.0421890142 -0.1043250618
-0.0311268280 -0.0376550025 -0.2816892639
0.0039073303 -0.0491878407 -0.2667275206
-0.0176706804 -0.0541507612 -0.0136049135
-0.0151852580 -0.0487590019 -0.2710050543
-0.0031468294 -0.0487341285 -0.2808802728
-0.0227563737 -0.0391822443 -0.3025084257
-0.0889611081 -0.0329684180 -0.0083911097
0.0836384489 -0.0300612278 0.0223369654
0.0804219455 -0.0276489465 0.0329158332
0.1644180670 -0.0193551968 0.0489157076
-0.0089844244 -0.0290256958 -0.3389761548
0.1687459946 -0.0215653340 0.0274381716
0.2211048539 -0.0140046840 0.0355040921
-0.0032584954 0.1595766119 0.3116607236
-0.0077479138 0.1526528999 0.3016342236
-0.0044742204 0.1066859982 0.2677876598
-0.0044923145 0.0906300303 0.2554151435
-0.0070549935 0.1230042840 0.2801558205
-0.0030661265 0.0709306070 0.2538352095
-0.0087218190 0.0578811412 0.2463214467
-0.0045689890 0.0507933562 0.2244209164
-0.0071069000 0.0623927380 0.2345782197
-0.0012440663 0.0346012144 0.2102051336
-0.0031758425 0.0327731439 0.2040600724
-0.0050127188 0.0336560922 0.1945581725
0.0005256117 0.0328563107 0.1926201864
-0.0091661216 0.0332250077 0.1951679464
0.0067524413 0.0320845573 0.1786124828
0.0107472795 0.0296854128 0.2016671803
0.0124532930 0.0304615870 0.1761760958
-0.0035291455 0.0350607395 0.1017308100
-0.0035613506 0.0350766353 0.0993074827
-0.0163137898 0.0313880531 0.2033423121
-0.0383647276 -0.0371632891 0.0948310419
-0.0082356667 0.0349779501 0.1102408042
-0.0080704924 0.0349505297 0.1287150552
-0.0061841516 0.0352701686 0.1602154862
0.0046704194 0.0330426833 0.1210807186
0.0091840652 0.0319217743 0.1315622410
-0.0312797000 0.0223692187 0.2033334858
0.0238295221 -0.0348153386 0.1279910100
-0.0192669191 0.0322763263 0.1249385494
-0.0204001838 0.0319415326 0.0953650024
-0.0159368104 0.0330629522 0.0927722552
0.0171137596 0.0272845992 0.1583792432
0.0055057749 0.0327770320 0.0527619823
0.0122645864 0.0310724751 0.0069039674
0.0095866747 0.0317478384 0.0040487709
0.0125773152 0.0309936057 -0.0314026889
-0.0278903051 0.0267474047 0.1833343622
-0.0031644145 -0.0539634444 0.0181903072
-0.0035628642 -0.0540541511 0.0503602812
0.0195213668 -0.0432274347 0.0964654271
-0.0395409461 -0.0367539162 0.0893342505
-0.0109690503 -0.0533696937 0.0724428553
-0.0301056051 0.0260857042 0.1676306285
-0.0270352942 0.0286703262 0.1311067611
-0.0198332378 0.0320723368 -0.0214768454
-0.0140425748 0.0335328071 0.0425993466
-0.0224727890 0.0314066123 -0.0177756788
-0.0241277551 0.0309892112 -0.0363452271
0.0156781069 0.0286312958 0.1040102161
0.0138423846 0.0301547004 -0.0574350142
0.0229014449 0.0229303406 -0.0984443622
0.0183865309 0.0265308645 -0.0515073923
0.0142867046 0.0298003670 0.0578626173
-0.0354219901 0.0202291782 0.1894430122
0.0080277078 -0.0514090148 -0.0474926361
0.0191116868 -0.0453132604 0.0241815070
0.0164184568 -0.0474850305 0.0158321263
0.0323596139 -0.0246386525 0.1044366773
0.0285461743 -0.0299070668 0.1230559430
0.0267175919 -0.0385798217 0.0459547638
-0.0367355056 0.0171904545 0.1926923068
-0.0303732007 -0.0454661009 0.0370131945
-0.0236694563 -0.0504708102 -0.0586349074
-0.0143195279 -0.0526052904 -0.0335372333
-0.0070200736 0.0353039609 -0.0077426678
-0.0172178304 0.0327319720 -0.0366722257
-0.0136381272 0.0336348134 -0.0344633931
-0.0077710830 0.0351145479 0.0003943626
-0.0215053859 0.0316506022 -0.0655223506
-0.0265620298 0.0292081541 0.0819571329
-0.0263315855 0.0293919517 -0.0055326196
-0.0291132337 0.0271733649 -0.0222464859
-0.0270176707 0.0288447439 -0.0409625134
0.0255717230 0.0206569340 0.1268260286
0.0250040135 0.0210914658 0.1317352109
0.0183176511 0.0265857943 -0.1128040229
-0.0056525015 0.0355911240 0.0043610638
0.0035237611 0.0332768914 -0.0441239902
-0.0043026973 0.0352507064 -0.0069357201
-0.0014596225 0.0345336894 -0.0433282217
0.0184211969 0.0265032193 0.0079813148
0.0261027543 0.0203773814 -0.1467070880
0.0276055569 0.0191789363 -0.0462183759
0.0159992532 0.0284346550 0.0847823572
0.0268693623 0.0197660319 -0.1010351066
0.0278370360 0.0189943379 -0.1305009229
0.0252549730 0.0210534644 -0.1042933710
0.0276734149 0.0191248213 0.0528279055
0.0044606526 -0.0522233395 -0.0807832780
0.0236788080 -0.0414736158 0.0053827120
0.0211416859 -0.0437180806 -0.0401880621
0.0349449155 -0.0158080667 0.1387984553
0.0280828033 -0.0372598735 0.0231909277
-0.0398016437 -0.0259878441 0.1500099488
-0.0080184217 -0.0540428031 -0.0362610051
-0.0278013251 -0.0476045762 -0.0284319904
-0.0145222039 -0.0525585411 -0.0038358782
-0.0359599271 0.0216432910 0.1068124643
-0.0323096358 0.0244633886 0.1315938029
-0.0105351643 0.0341187667 -0.1458221288
-0.0227040166 0.0313177770 -0.0819055883
-0.0082842251 0.0348160992 -0.1149235656
-0.0347597299 0.0226698327 0.0312635657
-0.0309527452 0.0257062074 -0.0276572649
-0.0340170309 0.0232621945 0.0166447287
0.0238939736 0.0221388253 -0.1696628530
0.0194645562 0.0256711679 -0.1494079842
0.0153265233 0.0289711392 -0.0994442116
-0.0034263487 0.0349634847 -0.0904136401
0.0053477529 0.0326519886 -0.1139385246
0.0024357055 0.0335303680 -0.0796198856
0.0286175339 0.0173900614 -0.0703895489
0.0295540007 0.0154453003 -0.0574239893
0.0299941523 0.0145312372 -0.0404997454
0.0243134457 -0.0411883094 -0.0914201474
0.0360632532 -0.0100302872 0.0919705928
0.0357843965 -0.0129613315 0.1045700563
-0.0426348018 -0.0233028782 0.1288700508
-0.0430819095 -0.0273852276 0.0987104576
-0.0436257476 -0.0285288989 0.0455966832
-0.0474295771 -0.0196732551 0.0833136037
-0.0462279070 -0.0228358940 0.0428388257
-0.0417363217 -0.0328586248 0.0224920777
-0.0311626830 -0.0449235704 -0.0347384949
0.0256625199 0.0202918935 0.1718126787
-0.0132687500 0.0334607261 -0.1680272140
-0.0241797883 0.0309702841 -0.1546852067
-0.0179682553 0.0323880651 -0.1349652423
-0.0341214042 0.0231788032 -0.0336772117
0.0281054687 0.0175672769 0.1256779086
0.0174810753 0.0266067504 -0.1998430163
0.0045891731 0.0328093315 -0.1369961298
0.0028901987 0.0331971012 -0.1563216285
0.0128308095 0.0309282807 -0.1564126454
0.0305376943 0.0134028235 -0.1412773702
0.0312379605 0.0119488221 -0.1726385374
0.0031992970 -0.0525118939 -0.1091041785
0.0219487167 -0.0430741175 -0.1519100372
0.0131911780 -0.0500580208 -0.1300707959
0.0112153264 -0.0506809951 -0.1657180249
0.0288892337 -0.0356986402 0.0053507019
0.0285232897 -0.0366528389 -0.0250407819
0.0221481152 -0.0429151026 -0.1204652473
0.0360514288 -0.0201207729 0.0214628330
0.0315974567 -0.0292418264 0.0750649363
0.0313263628 -0.0300424371 0.0591244247
0.0361509994 -0.0123984654 0.0352891227
0.0361509994 -0.0169448839 0.0491968799
0.0361509994 -0.0154477141 0.0137937263
0.0331907050 -0.0269908207 -0.0298235059
0.0295722579 -0.0340263312 0.0449633943
-0.0441534385 -0.0209809516 0.1259515306
-0.0448141757 -0.0264691010 0.0020754745
-0.0465767242 -0.0230157348 -0.0312979009
-0.0476850010 -0.0104970848 0.0610741760
-0.0476850010 -0.0096313777 0.0869623425
-0.0476850010 -0.0018403290 0.0876568642
-0.0345755633 -0.0421882270 -0.0202593795
-0.0392117804 -0.0381839509 -0.0228019178
-0.0246764809 -0.0500960305 -0.1477449846
-0.0234475610 -0.0505215456 -0.1009558543
0.0282585016 0.0162982738 0.1655461242
-0.0090088816 0.0332616014 -0.2233665597
-0.0104499243 0.0336799738 -0.1964585308
-0.0311780673 0.0255262341 -0.1194012939
-0.0336254894 0.0235742971 -0.0531887365
-0.0330240013 0.0240540128 -0.1044923216
-0.0343938852 0.0229614644 -0.0630675834
0.0282676746 0.0180031753 0.0946976507
0.0202435773 0.0238455897 -0.2159535023
0.0283501815 0.0162028827 -0.2090890758
0.0043922190 0.0328371806 -0.1818018052
0.0008792513 -0.0530419594 -0.0988064509
0.0124605240 -0.0501688298 -0.2082694363
0.0339012880 -0.0258019263 -0.0951785767
0.0324834731 -0.0282747476 -0.0018830552
0.0304544794 -0.0322158836 0.0392683565
0.0361509994 -0.0048721609 0.0559597275
0.0361509994 -0.0161237071 0.0074792737
-0.0476040715 -0.0121380755 0.0916550432
-0.0471630311 -0.0142572852 0.1115411883
-0.0476850010 -0.0199820097 -0.0743528994
-0.0476850010 -0.0070033960 0.0426937937
-0.0476850010 -0.0009484802 -0.0287592682
-0.0476850010 -0.0106387615 -0.0113753593
-0.0476850010 -0.0100728521 0.0156717080
-0.0418232045 -0.0329880859 -0.0260252106
-0.0407287372 -0.0353784842 -0.0445805901
-0.0370990591 -0.0401880325 -0.1249893082
-0.0372712211 -0.0400507196 -0.1152382615
-0.0149971452 -0.0524508203 -0.1476758533
-0.0150509372 0.0318386395 -0.2249407230
-0.0036927890 0.0340489846 -0.2046088796
-0.0039224008 0.0345348308 -0.1890021946
-0.0281791086 0.0269975598 -0.2077853477
-0.0325145818 0.0244602994 -0.1770692010
0.0101630165 0.0303905250 -0.2224639484
0.0246832175 -0.0404904538 -0.1928424525
-0.0174714943 -0.0517418209 -0.1981708379
0.0321045466 -0.0295350114 -0.1420971300
0.0361509994 -0.0208401609 -0.0707507515
0.0361509994 -0.0012860064 0.0487454027
0.0361509994 0.0003803299 0.0117609744
0.0361509994 -0.0041275334 0.0239407463
-0.0463107192 -0.0034802971 0.1499737819
-0.0476850010 -0.0030756755 -0.0403781816
-0.0459065671 -0.0248217923 -0.0760891565
-0.0333534953 -0.0421523451 -0.2107322958
-0.0403329266 0.0168021636 0.1011097140
-0.0179189814 0.0309980395 -0.2316267466
0.0039424043 0.0299400607 -0.2524567005
0.0051696267 0.0285726815 -0.2562209960
-0.0409771822 0.0156701573 -0.1605669438
-0.0401990126 0.0172857592 -0.0230456677
-0.0415130955 0.0145576456 -0.0356449564
0.0179119413 0.0249821161 -0.2368680949
-0.0413086990 0.0148581407 -0.1831544178
-0.0315752436 0.0239276465 -0.2182274477
0.0318264283 0.0107285470 -0.0363702974
0.0117004302 -0.0501231153 -0.2341581504
-0.0107256993 -0.0528682711 -0.2142505201
0.0361509994 -0.0183999041 -0.0646821980
-0.0476850010 -0.0116101377 -0.0660655487
-0.0476850010 -0.0131510637 -0.0758006673
-0.0412899886 -0.0344051969 -0.1059850997
-0.0411145186 0.0150119830 0.1092476094
-0.0108937699 0.0248914173 -0.2735580888
0.0100561115 0.0249668378 -0.2676574292
-0.0420589403 0.0134244369 -0.0535020500
0.0319886807 0.0094888652 0.1288571470
0.0301990400 -0.0334913941 -0.1733528865
0.0080575927 -0.0508947052 -0.2357156327
0.0280142699 -0.0344353075 -0.2423781680
0.0361509994 -0.0029098123 -0.0625557116
0.0361509994 -0.0061768267 -0.1753075496
0.0361509994 -0.0188610467 -0.1086289340
0.0361509994 0.0016599430 -0.1802193649
0.0361509994 -0.0069911502 -0.0909180953
0.0361509994 -0.0004445945 -0.1593214136
0.0361509994 -0.0070070800 -0.1122303724
0.0361509994 -0.0076177282 -0.0629835617
-0.0476850010 -0.0209771432 -0.1351216924
-0.0476850010 -0.0038181300 -0.0772042582
-0.0476850010 -0.0054855281 -0.0942289529
-0.0293877845 -0.0448122976 -0.2466666347
-0.0107319690 0.0224652647 -0.2824381175
0.0031689846 0.0193201781 -0.2938170418
-0.0441423417 0.0090989361 -0.0879786783
0.0296431827 0.0121177374 -0.2315330595
0.0355396840 -0.0037504191 -0.2037904281
0.0358342415 -0.0045592357 -0.1928986629
0.0334496961 -0.0267391373 -0.1690480289
0.0318590562 -0.0290289758 -0.2040303751
-0.0414527388 -0.0340696583 -0.1699373267
0.0122132925 -0.0495342126 -0.2500391466
0.0302173182 -0.0323425935 -0.2060597686
0.0342177715 -0.0251455446 -0.1663548904
-0.0443064164 0.0076883198 0.1440349738
-0.0460795420 -0.0244619185 -0.1519661049
-0.0476850010 -0.0008966956 -0.1453373909
-0.0476850010 -0.0065497843 -0.1699595095
-0.0476850010 -0.0061047375 -0.1341110655
-0.0476850010 -0.0043233792 -0.1764601339
-0.0429884271 -0.0308809525 -0.1323016517
-0.0411691440 -0.0323508376 -0.2248268330
-0.0337150433 -0.0332420490 -0.2864468765
-0.0290672737 -0.0447252291 -0.2505176948
-0.0228517999 0.0263862149 -0.2604455987
0.0176767330 0.0190518168 -0.2683011417
-0.0418375814 0.0138842638 0.0168356225
-0.0467260245 -0.0053546467 -0.2165865847
-0.0476426223 -0.0060540419 -0.1827504166
0.0349025833 -0.0045015131 -0.2273483055
0.0346112328 -0.0109739844 -0.2381214823
0.0313247265 0.0117684617 -0.0568577835
-0.0455195473 -0.0236642404 -0.2253040121
0.0022137912 -0.0501688516 -0.2601690925
-0.0192968841 -0.0498754350 -0.2549705077
-0.0459420316 0.0053639168 0.0872782052
-0.0431091087 -0.0306303320 -0.1428703537
-0.0390280690 -0.0256423790 -0.2781823942
-0.0237965877 -0.0456662679 -0.2727726337
-0.0428692311 0.0117420621 -0.1107375542
-0.0467931466 -0.0208698350 -0.2141087740
-0.0468697859 -0.0178191127 -0.2112796391
-0.0387942395 0.0174416660 -0.2254613806
0.0361509994 0.0005673648 -0.0510778119
0.0258951051 -0.0322028020 -0.2672242749
0.0351826842 0.0037582473 -0.0308113600
-0.0270191299 -0.0314710949 -0.3116631174
-0.0379056440 -0.0213980013 -0.2927335905
-0.0169712172 0.0144978774 -0.3023867448
-0.0433391049 0.0107665541 -0.0024392533
-0.0454058595 0.0033873797 -0.2306904070
-0.0421731386 -0.0325727732 -0.1551964513
0.0234396495 -0.0258102250 -0.2973862413
-0.0467170836 0.0017730116 0.1316522725
-0.0403577801 -0.0017054636 -0.2790970204
-0.0348731077 -0.0157271290 -0.3028847058
0.0224098075 0.0164933729 -0.2661922054
0.0287944021 0.0097653205 -0.2557166170
-0.0007197916 -0.0423752956 -0.3073824358
-0.0098667772 -0.0455198295 -0.2981557728
-0.0461858562 0.0048564248 -0.0186973836
-0.0440249605 -0.0152076974 -0.2586980091
-0.0463574317 0.0045002590 -0.1466267830
-0.0459597208 -0.0016701858 -0.2448679400
-0.0105301541 -0.0421875538 -0.3080955200
0.0273726402 -0.0199011700 -0.2871780215
0.0209711779 -0.0195569365 -0.3107014449
-0.0402077923 0.0026748786 -0.2730702566
-0.0315596813 0.0145406507 -0.2823064719
0.0312482033 0.0027276652 -0.2603129060
-0.0107894907 -0.0393373449 -0.3166365663
0.0309121230 -0.0093412253 -0.2674942896
0.0332196838 -0.0050630191 -0.2546570960
-0.0384512451 0.0089702953 -0.2668084539
-0.0239244332 -0.0146397787 -0.3295847604
0.0324207091 -0.0051886508 -0.2591042250
0.0174144921 -0.0180981404 -0.3193312410
-0.0446900078 0.0079620031 0.0757104863
-0.0196345123 -0.0144148631 -0.3365329626
0.0102132070 -0.0153721220 -0.3331153618
-0.0453285533 0.0066360608 0.0077385814
0.0066541219 -0.0213999231 -0.3368854580
-0.0443768477 0.0086120894 0.0695677005
0.0356479656 0.0027910876 -0.1114604634
-0.0427693445 0.0119493766 0.0733791395
0.0002726146 -0.0026373148 -0.3336347864
0.0319075188 0.0105598218 0.0498863914
-0.0432808505 0.0108873941 0.0317541864
-0.0420378153 0.0134681459 0.0648578393
0.1262103413 -0.0311870463 -0.0710092032
-0.1383806038 -0.0348342046 -0.0317321127
0.1324010638 -0.0380010712 -0.0546411944
0.1083582687 -0.0311376535 -0.0548930911
0.1011225738 -0.0383516819 -0.0660937779
-0.1131381830 -0.0376454482 -0.0821977371
-0.0431012986 0.0072497182 -0.2454575165
-0.0084650552 0.0269687010 0.2961009184
-0.0171477682 0.0162968838 0.3000801732
0.0144965399 0.0100183429 0.2722697044
0.0222869442 0.0211470524 -0.2468281732
0.0337262281 0.0067820836 -0.1408940446
0.1341256975 -0.0419540031 -0.0727998366
-0.0401046608 0.0110857579 0.1904529267
-0.0461833420 -0.0040660385 0.1557643740
-0.0888499990 -0.0324058395 0.0065321977
-0.1736660886 -0.0179539856 0.0458687876
0.1186710000 -0.0285873968 -0.0117430945
0.1149540022 -0.0228878801 -0.0600624387
-0.0963279977 -0.0325841975 0.0076982857
-0.1802790016 -0.0221593841 0.0310884864
0.1168109998 -0.0231490185 -0.0663937787
-0.1302019954 -0.0219813239 -0.0595705216
-0.1242082025 -0.0302030249 -0.0881543155
0.1338918095 -0.0514894514 -0.0829136190
-0.1111205409 -0.0437210599 -0.0570691647
0.1155678157 -0.0626345674 -0.0899938217
-0.0032540976 -0.0344153341 0.1702599972
-0.0403539484 -0.0166475532 0.1863816286
0.0265625915 -0.0268741692 0.1675196972
-0.0376610533 -0.0174186414 0.1702599972
-0.0284501327 -0.0204953440 0.1702599972
-0.0295947743 -0.0123729741 0.1702599972
-0.0392667298 0.0022736053 0.1702599972
-0.0167000178 -0.0101057248 0.1702599972
-0.0190254810 0.0281362702 0.1702599972
-0.0128936318 0.0011322425 0.1702599972
-0.0253816480 0.0011862491 0.1702599972
-0.0006179809 0.0203186219 0.1702599972
0.0227382663 0.0135059495 0.1702599972
-0.0000912114 0.0175634084 0.1702599972
-0.0350144683 0.0129930307 0.1702599972
-0.0203548488 0.0058316516 0.1702599972
-0.0191459776 0.0231025075 -0.1811860055
-0.0084612053 -0.0421637452 -0.1811860055
-0.0150481338 0.0143245365 -0.1811860055
-0.0286565049 0.0068989892 -0.1811860055
-0.0037579463 -0.0496281738 -0.1811860055
0.0290060696 0.0106391521 -0.1811860055
-0.0017559196 0.0064962737 -0.1811860055
-0.0129181615 0.0279908608 -0.2484840006
0.0157239424 -0.0062294075 -0.1811860055
0.0344669950 -0.0163779864 -0.1811860055
0.0337151175 0.0011636426 -0.1811860055
-0.0293941353 -0.0325884328 -0.1811860055
0.0172202175 -0.0430449838 -0.2484840006
0.0044114635 0.0235328300 -0.2484840006
-0.0364612363 -0.0037078264 -0.1811860055
-0.0251267946 -0.0081557834 -0.1811860055
-0.0039670400 -0.0121809145 -0.1811860055
0.0256988663 -0.0349143109 -0.1811860055
0.0322125504 -0.0224889765 -0.1811860055
-0.0289633378 -0.0431017760 -0.2484840006
-0.0254102123 0.0188418603 -0.2484840006
-0.0145756206 -0.0344154177 -0.2484840006
0.0238027938 -0.0281526947 -0.2484840006
-0.0315542519 0.0161001407 -0.2484840006
-0.0394306869 0.0022486287 -0.2484840006
-0.0260286244 0.0137354859 -0.2484840006
-0.0296253313 0.0109491925 -0.2484840006
0.0053268026 -0.0116415555 -0.2484840006
-0.0308810176 -0.0018115029 -0.2484840006
0.0026376309 -0.0081006639 -0.2484840006
0.0224692363 -0.0189034772 -0.2484840006
0.0179540448 -0.0216718423 -0.2484840006
0.0187040477 -0.0066760595 -0.2484840006
0.1104226239 0.0207334281 0.2805593742
-0.0482436286 0.0111225873 0.2292298442
-0.1308374736 0.0217995452 0.2868234170
-0.0691326092 0.0157955132 0.2434090139
-0.0453014209 0.0066926224 -0.0962878335
-0.0456497607 0.0059694075 -0.1187378667
-0.0004245345 0.0098677447 -0.3103543690
-0.0249341296 0.0112953635 -0.3016274042
0.0240804456 0.0030845060 -0.2938938048
-0.0307985103 0.0093450210 -0.2981410295
0.0828145276 -0.0291858381 0.0261634503
-0.1749145867 -0.0185732440 0.0523658587
-0.1750376824 -0.0235203717 0.0316400720
0.2208570303 -0.0127106162 0.0737975728
-0.2360539843 -0.0183838677 0.0410143533
0.0694940049 -0.0221315793 0.0092058287
0.0534414589 -0.0207670284 0.0039499133
0.0730819375 -0.0219307921 0.0094763490
-0.0702191474 -0.0223312941 0.0081500162
-0.0803798694 -0.0195868434 0.0034669588
0.1280802602 -0.0185872492 0.0310619505
-0.0713661364 -0.0258464200 0.0176924947
-0.0966469215 -0.0233179312 0.0177638943
-0.1391726187 -0.0175774178 0.0274974937
-0.1151360111 -0.0204506946 0.0176472196
-0.1978374489 -0.0084408620 0.0443575962
0.1904215697 -0.0111070930 0.0565264967
0.1685498091 -0.0135282688 0.0469447891
-0.2226106426 -0.0073061816 0.0607520400
-0.2144734698 -0.0080351772 0.0566403402
-0.2836224768 -0.0001728574 0.0856824310
0.2741912688 0.0001327211 0.0861630510
0.1159068884 -0.0156886088 0.0122037897
0.3217104551 0.0042716712 0.1113284611
-0.3357347382 0.0050917567 0.1095385752
-0.2822529647 -0.0011199708 0.0882051008
0.2343353552 -0.0062562134 0.0757993791
0.3347720042 0.0055402836 0.1175674655
-0.2406973347 -0.0065962878 0.0727942118
0.0226069517 0.0010958825 -0.2980179096
-0.0024779513 -0.0037201054 -0.3375587672
0.1211486991 -0.0291067311 -0.0809502116
0.1154150962 -0.0285919408 -0.0627075750
-0.1344960924 -0.0324249239 -0.0303185508
-0.1401616297 -0.0327999016 -0.0685756586
-0.1399028631 -0.0329936708 -0.0845210518
-0.1332203830 -0.0315616273 -0.0924956084
-0.1236289913 -0.0292574064 -0.0684632899
-0.1169554414 -0.0328168152 -0.0745566050
-0.1150408486 -0.0354311127 -0.0850287684
-0.1464422644 -0.0458850287 -0.0610297021
-0.1457630798 -0.0499360436 -0.0787318935
-0.1120899214 -0.0397709174 -0.0554072317
0.1292793447 -0.0587970275 -0.0869009551
0.1054112577 -0.0564803658 -0.0361321602
-0.1140129572 -0.0479839548 -0.0290764715
0.1258769940 -0.0614462448 -0.0708725670
0.1098226401 -0.0625269906 -0.0635770166
-0.1141991414 -0.0563523774 -0.0603937120
0.1133226906 -0.0633683316 -0.0830282354
-0.1219796491 -0.0601474862 -0.0350581750
0.1135014321 -0.0364425235 -0.0102642363
-0.1279994930 -0.0355462968 -0.0109033679
-0.1214847167 -0.0374136581 -0.0159103175
-0.1182905196 -0.0421338375 -0.0144175861
-0.1182537401 -0.0473090453 -0.0099053806
-0.1243604630 -0.0572198643 -0.0193044085
-0.1334879415 -0.0350079250 -0.0213822959
0.1271209023 -0.0441280470 -0.0099713479
0.1046110849 -0.0455527885 -0.0218662749
-0.1380195472 -0.0528326464 -0.0170345908
0.1192117362 -0.0586525629 -0.0246486249
-0.1206860251 -0.0532504369 -0.0119187027
-0.1463960618 -0.0456648340 -0.0727531464
-0.1415788745 -0.0571716132 -0.0505563363
0.1008769764 -0.0500362288 -0.0475862368
0.1043872137 -0.0536609879 -0.0294647733
-0.1125507327 -0.0524225651 -0.0506210184
0.1307206218 -0.0573865824 -0.0756498313
0.1200642029 -0.0605147070 -0.0292482611
-0.1349409510 -0.0628750435 -0.0821168593
-0.1281567675 -0.0615431542 -0.0338879863
-0.0050536690 0.1240982139 0.2751546042
-0.1399680041 -0.0465322465 -0.0722245677
-0.1209487379 -0.0576610947 -0.0703388173
-0.1289341748 -0.0487501250 -0.0818057635
-0.0073875677 0.1090934619 0.2722973953
0.1256286604 -0.0400415082 -0.0731915043
0.1057235174 -0.0447989918 -0.0726444828
0.1167305473 -0.0447694026 -0.0852452860
-0.0074038912 0.0746285148 0.2462533919
