-0.0100480802 -0.0411247855 -0.2422952308
0.0096070930 -0.0395272806 -0.2417602862
-0.0083105055 -0.0625273185 -0.2435812498
-0.0076829284 -0.0543738511 -0.2395566170
-0.0015706913 -0.0548662338 -0.2402404823
0.0009658453 -0.0581131820 -0.2312160134
0.0029630898 -0.0643141915 -0.2318972471
0.0030192237 -0.0601407328 -0.2330337551
0.0011416470 -0.0322821676 -0.2489714104
0.0737062669 -0.0558899844 0.0124425531
0.0757423569 -0.0641768917 0.0166267698
0.0757126715 -0.0581667745 0.0040424179
0.0676068701 -0.0478683910 0.0174720725
0.0504317759 -0.0555322028 -0.0002233947
0.0586180016 -0.0491917507 0.0153094009
0.0538939229 -0.0648946500 0.0003074765
0.0586180016 -0.0601588976 0.0098664872
0.0506378457 -0.0619846572 0.0166626056
0.0618681384 -0.0274313694 0.0100044741
0.0583218012 -0.0603277693 0.0113652723
0.0748127660 -0.0204046954 0.0394981295
0.0723448374 -0.0222135174 0.0418854510
0.1301784448 -0.0170994156 0.0424783559
0.1293786964 -0.0136443967 0.0400653190
0.1952349544 -0.0065491472 0.0851951189
0.1021181503 -0.0137586039 0.0557877855
0.0475907581 -0.0188182818 0.0508234994
0.2019762625 -0.0063916966 0.0728831629
0.1203302228 -0.0125985585 0.0557410579
0.1452505751 -0.0121569391 0.0523006720
0.1180622835 -0.0149610684 0.0422650653
0.0686844603 -0.0195704893 0.0364317237
0.2587395200 -0.0009468707 0.0926350234
0.0626929166 -0.0131267717 0.0331645387
0.1449558557 -0.0091815351 0.0617798892
0.1038670273 -0.0095197292 0.0332615077
0.0721181519 -0.0208849850 0.0290793015
0.2513001207 -0.0033235911 0.0817943208
0.0414971294 -0.0134157418 0.0235823241
0.2595346024 -0.0002608987 0.0976016935
0.0402892426 -0.0125401721 0.0144538714
0.1836870458 -0.0111213782 0.0519166442
0.2597741753 0.0005702683 0.0933986169
0.0551227717 -0.0117747085 0.0192532030
0.2722107152 -0.0023000642 0.0830353180
0.0942529757 -0.0093196949 0.0242876466
0.1751484776 -0.0133855246 0.0391455684
0.1822108144 -0.0118583622 0.0474545656
0.0688156829 -0.0102706211 0.0113030642
0.1932883252 -0.0114625016 0.0458344320
0.0933034741 -0.0087902247 0.0147861270
0.1692733156 -0.0141707787 0.0332505810
0.2230912613 0.0001442818 0.0643589989
0.1629240553 -0.0041983265 0.0397948048
0.2390993645 -0.0066568302 0.0596173666
0.0636839971 -0.0263179538 -0.0008462860
0.1878296736 -0.0022279480 0.0438290100
0.0610554059 -0.0271044683 -0.0130511120
0.0563187883 -0.0277684069 -0.0140669187
0.1553773294 -0.0153095361 0.0191828231
0.0484250204 -0.0108285975 -0.0205200422
0.0903299174 -0.0227639683 -0.0080537209
0.1057129164 -0.0081261428 -0.0055183120
0.0603336260 -0.0264283833 -0.0222578088
0.1535488145 -0.0124552522 0.0051165359
0.0976702704 -0.0086890758 -0.0109024721
0.1382350401 -0.0058082622 0.0118897173
0.1903342007 -0.0106891597 0.0288796785
0.1062009026 -0.0084354293 -0.0097359773
0.0473932030 -0.0237189490 -0.0477956244
0.1590137712 -0.0048391784 0.0139048369
0.2296288235 -0.0025944315 0.0406649840
0.1673010462 -0.0043287942 0.0170561266
0.0922447045 -0.0154315950 -0.0284850433
0.0329105667 -0.0144999387 -0.0555332266
0.0593678614 -0.0151007559 -0.0453292458
0.0944248820 -0.0141115958 0.0566447195
0.1551421119 -0.0108610383 0.0572086823
0.1892274174 -0.0071183104 0.0717084826
0.0857534442 -0.0129975147 0.0446474833
0.0970212105 -0.0124711307 0.0473822803
0.1777943122 -0.0076441561 0.0719324449
0.2209935035 -0.0055123409 0.0749445909
0.1948272765 -0.0049005749 0.0752076652
0.0436746818 -0.0223296730 0.0319512323
0.1432543255 -0.0086489942 0.0572482599
0.1418399223 -0.0084564803 0.0549830466
0.1120375202 -0.0160412111 0.0379542789
0.0470799302 -0.0127746865 0.0224802505
0.1099327354 -0.0185399500 0.0259008244
0.0622700611 -0.0118861013 0.0251733260
0.2220387379 -0.0071314892 0.0664287025
0.1416828007 -0.0143577445 0.0425217705
0.2224242175 -0.0011976227 0.0746245992
0.0352850808 -0.0126336801 0.0097967946
0.2163653399 -0.0082507506 0.0607971721
0.0303279459 -0.0125387717 0.0015364797
0.1867704388 -0.0114085829 0.0490071631
0.2990538035 0.0200254704 0.1074256513
0.0711174699 -0.0099285043 0.0075566339
0.3030401269 0.0363037093 0.1124780615
0.0834396933 -0.0091619409 0.0090045831
0.1406199903 -0.0173374392 0.0197443465
0.2996633950 0.0254109724 0.1144798742
0.0299042416 -0.0120600976 -0.0099544589
0.2187014450 -0.0002190985 0.0597988381
0.2748768332 -0.0027815492 0.0749492197
0.2650952210 0.0030862887 0.0759477489
0.2964076022 0.0162348502 0.1004660766
0.1286784145 -0.0063556021 0.0214125248
0.2997298657 0.0309178266 0.1052412175
0.0818381047 -0.0243328618 -0.0022301241
0.3042812605 0.0406776213 0.1069645082
0.0715617291 -0.0098100108 -0.0164069007
0.0913457158 -0.0226326070 -0.0076691770
0.1069624039 -0.0079501863 -0.0024872774
0.0336444571 -0.0298779113 -0.0221991561
0.2053966578 -0.0093831718 0.0369459977
0.1115605072 -0.0156642940 -0.0164825778
0.1411937950 -0.0056298535 0.0125802243
0.0407483109 -0.0285657268 -0.0310503987
0.0601648518 -0.0237123120 -0.0371141034
0.0382594812 -0.0286747824 -0.0330242665
0.0543465570 -0.0253148299 -0.0360792361
0.1742494612 -0.0036229335 0.0226510714
0.0612046834 -0.0199171652 -0.0439475524
0.0837469498 -0.0099781426 -0.0231254798
0.1386340008 -0.0074145692 -0.0010669830
0.0490759316 -0.0176839779 -0.0519005438
0.2994799482 0.0211457756 0.1069451811
0.2957891862 0.0129120355 0.1009769908
0.2997011843 0.0201511837 0.0921840216
0.2979500480 0.0238021750 0.0955291043
0.0867449115 -0.0356236517 -0.0200214656
0.0876430636 -0.0420917444 -0.0286333638
0.0942734894 -0.0446906570 -0.0220271576
0.1039336642 -0.0411396447 -0.0270745882
0.0797303569 -0.0312349710 -0.0362575943
0.0776295822 -0.0286705021 -0.0508820332
0.0861152274 -0.0241277130 -0.0455610858
0.0787991386 -0.0268446577 -0.0764205840
0.0901942538 -0.0306344387 -0.0114605260
0.0894015232 -0.0278178868 -0.0273989577
0.0929825517 -0.0195555217 -0.0355878936
0.0961637764 -0.0228097335 -0.0347520997
0.0950498323 -0.0162234260 -0.0518029535
0.0886239497 -0.0484672902 -0.0432456370
0.0845365874 -0.0493970748 -0.0823794421
0.1028371970 -0.0204228796 -0.0498587637
0.0950903409 -0.0506837163 -0.0456282343
0.0871585243 -0.0527296183 -0.0754832746
0.1084122699 -0.0223181914 -0.0437181528
0.0970518716 -0.0521051828 -0.0396096731
0.1029329458 -0.0434156585 -0.0314629963
0.1030097787 -0.0539235544 -0.0554264082
0.1011153918 -0.0215903046 -0.0838634218
0.1034489618 -0.0327191591 -0.0118664426
0.1080242442 -0.0509953504 -0.0675081219
0.1047486048 -0.0455909679 -0.0378910339
0.1099587131 -0.0450077167 -0.0566598539
0.1033238348 -0.0413920523 -0.0181631709
0.1119948334 -0.0403770226 -0.0560248475
0.1105035841 -0.0382992929 -0.0856735534
0.0787857329 -0.0257968903 -0.0715586690
0.0773007477 -0.0406883727 -0.0772657323
0.0979987358 -0.0185309030 -0.0390751744
0.0895176504 -0.0544838999 -0.0554220144
0.1007713136 -0.0192260982 -0.0840005378
0.1130995047 -0.0262941449 -0.0562210413
0.1092987397 -0.0492512180 -0.0494843988
0.1144691443 -0.0404458715 -0.0715705490
0.0843656523 -0.0372631582 -0.0270059718
0.0871211421 -0.0316888429 -0.0266574097
0.0920072918 -0.0289188692 -0.0200645558
0.1013015171 -0.0233093082 -0.0387788014
0.0970508107 -0.0521635253 -0.0538462924
0.1045729638 -0.0401436211 -0.0291817753
0.1024933022 -0.0407843226 -0.0128581387
0.1028865898 -0.0459608151 -0.0755439997
0.0970219970 -0.0298069434 0.0056762909
0.0941509977 -0.0233500071 0.0369410849
0.0941509977 -0.0236678331 0.0126709259
0.0941509977 -0.0172579042 -0.0608000510
0.0970219970 -0.0202971899 0.0265228195
0.0970219970 -0.0294124024 0.0017009063
0.0941509977 -0.0220863099 -0.0289336161
0.0941509977 -0.0216077737 -0.0329471531
0.0183481304 0.0222020238 0.3254970698
0.0455734791 0.0279603911 0.3558795774
0.0261068075 0.0263332416 0.3506160363
0.0458123673 0.0284890626 0.3712480658
0.0982265666 0.0342045524 0.4034784811
0.0247186836 0.0258435248 0.3754298505
0.0462314395 0.0259323188 0.4064814062
0.0105631101 0.0234719414 0.3752705587
0.0945553108 0.0330335438 0.4142163437
0.0138666972 0.0248170807 0.3413770586
0.0314356039 0.0267346537 0.3514225937
0.0743402727 0.0316055573 0.3814025686
0.0176653570 0.0254283948 0.3486252676
0.0110664918 0.0247009398 0.3494316745
0.0876157591 0.0328283064 0.4030489799
0.0869245369 0.0311957109 0.4205553932
0.0433523482 0.0259157230 0.4023666268
0.1160873378 0.0354126887 0.4130501299
0.0155689223 0.0183448739 0.3313269821
0.0896347406 0.0295844588 0.3846958000
0.0991359351 0.0309329426 0.3990601905
0.0731555994 0.0266789819 0.3915598213
0.0170332851 0.0174672474 0.3555925489
0.0994893670 0.0311178602 0.4068685475
0.0094940877 0.0199539129 0.3968091484
0.0189495271 0.0194456526 0.3835873765
0.1125190348 0.0334393229 0.4155330542
0.0431053708 0.0226766674 0.3492530666
0.0871653674 0.0290475500 0.3851328214
0.0829820135 0.0282802507 0.3889305184
0.0383696956 0.0209615738 0.3645438741
0.0910866628 0.0297628075 0.4033596889
0.0481915017 0.0236705118 0.3939430632
0.0224922679 0.0209548207 0.3936587847
0.0856659123 0.0300076228 0.4153731327
-0.0756030793 -0.0541661363 0.0062261574
-0.0750555920 -0.0695469844 0.0070611005
-0.0671110004 -0.0625805013 0.0154726154
-0.0704825691 -0.0473460869 0.0049597515
-0.0671110004 -0.0690811929 0.0093850039
-0.0588590018 -0.0514341223 0.0120901867
-0.0568729363 -0.0467190872 0.0146653594
-0.0588590018 -0.0634704147 0.0071575588
-0.0511974095 -0.0571925014 0.0089016553
-0.0611934482 -0.0451842387 0.0119186597
-0.0638952929 -0.0273625992 0.0099183430
-0.0743964609 -0.0176928442 0.0623142181
-0.0723310523 -0.0187091083 0.0607370619
-0.1308335353 -0.0133084472 0.0610690005
-0.1320106082 -0.0110653339 0.0547884134
-0.1950533667 -0.0095254296 0.0732965694
-0.1963859772 -0.0113977604 0.0590214612
-0.0894168343 -0.0160520283 0.0465511395
-0.0705461888 -0.0160647697 0.0566400795
-0.2004615593 -0.0061513775 0.0749485139
-0.0876345985 -0.0163757577 0.0453260668
-0.1756171090 -0.0093508238 0.0620516230
-0.1686704238 -0.0102957162 0.0584475064
-0.2209332032 -0.0028731975 0.0833809457
-0.0586590431 -0.0210369465 0.0331121959
-0.1612198835 -0.0079562196 0.0669946957
-0.1484482961 -0.0075125323 0.0543127621
-0.1638924241 -0.0111533944 0.0549956749
-0.0370694549 -0.0144148356 0.0273577841
-0.0869482888 -0.0196293679 0.0299239032
-0.2223066741 -0.0020967396 0.0797414878
-0.0755358711 -0.0214780729 0.0249344144
-0.0778003248 -0.0105727064 0.0251232335
-0.2240749837 -0.0008520219 0.0736575200
-0.1273117664 -0.0170296951 0.0303879973
-0.0820574301 -0.0098703831 0.0193541790
-0.2853218233 -0.0012426750 0.0858614691
-0.0870734125 -0.0093719184 0.0174899258
-0.2561646778 -0.0046541312 0.0720770194
-0.1341864939 -0.0173279624 0.0259817693
-0.1858896169 -0.0025097274 0.0513631997
-0.2451848493 -0.0059609863 0.0654317682
-0.0338516158 -0.0116448454 -0.0158676607
-0.1474986134 -0.0052440031 0.0328162163
-0.1530287975 -0.0158405009 0.0289546788
-0.0398003327 -0.0112346663 -0.0149811852
-0.1099288736 -0.0205459716 0.0112617104
-0.1660889123 -0.0037359789 0.0345639049
-0.0424328032 -0.0271243749 0.0054666533
-0.0981678347 -0.0221604012 -0.0009759111
-0.0587303428 -0.0104079312 -0.0192763914
-0.1610156130 -0.0146074926 0.0199903639
-0.0411259496 -0.0120901273 -0.0395691566
-0.1435187252 -0.0052203609 0.0196002723
-0.0347971219 -0.0124014333 -0.0417156627
-0.1346123155 -0.0060953915 0.0097424067
-0.1327042672 -0.0153810024 -0.0029488452
-0.1291740318 -0.0177577448 0.0039041520
-0.0840655655 -0.0096892669 -0.0200647589
-0.1873806653 -0.0109075344 0.0269339214
-0.1667612385 -0.0041571207 0.0192127447
-0.0480998997 -0.0244369110 -0.0453696152
-0.0705529834 -0.0244906969 -0.0234998354
-0.1705209539 -0.0042549870 0.0171730128
-0.0822978461 -0.0104840659 -0.0263297204
-0.2286773547 -0.0013511747 0.0411236580
-0.0803098498 -0.0148218970 -0.0351912664
-0.0942833680 -0.0147508679 0.0531919796
-0.0484825953 -0.0165212285 0.0478479625
-0.0484731600 -0.0162764836 0.0462266921
-0.2035323246 -0.0062558349 0.0733729621
-0.1085071658 -0.0124049034 0.0530285825
-0.0355035182 -0.0167595001 0.0424806841
-0.0798543584 -0.0120937620 0.0357519883
-0.2261777687 -0.0019918505 0.0821606624
-0.0343700827 -0.0212389928 0.0392609193
-0.1617844510 -0.0070854019 0.0622100575
-0.2373936848 -0.0026009897 0.0881000840
-0.0522916272 -0.0130735994 0.0271175420
-0.1519285097 -0.0126596558 0.0493469956
-0.0918881637 -0.0102083164 0.0308469329
-0.2219551687 -0.0019912761 0.0788331136
-0.0982469190 -0.0092912084 0.0277355483
-0.0334252228 -0.0126433347 0.0071831277
-0.2434760363 -0.0043409146 0.0778819464
-0.1470592871 -0.0150069242 0.0376790906
-0.1994360856 -0.0027084836 0.0654734168
-0.2041292518 -0.0094683436 0.0566470349
-0.0374889730 -0.0117361591 -0.0038103901
-0.1914690854 -0.0110583102 0.0498883724
-0.0958456029 -0.0208043399 0.0192106095
-0.1689186433 -0.0038015254 0.0455374914
-0.3061572923 0.0496501240 0.1187378203
-0.2773869155 0.0040246623 0.0838810852
-0.1230608835 -0.0069795969 0.0239038928
-0.3067906954 0.0559815505 0.1247522756
-0.1678060199 -0.0144747486 0.0298059138
-0.0945050347 -0.0084152536 0.0070924878
-0.0970624232 -0.0222223512 0.0067494429
-0.1998989786 -0.0013612010 0.0468131548
-0.1627851821 -0.0148861051 0.0261716747
-0.3063960178 0.0575816088 0.1168335367
-0.0350022222 -0.0117412737 -0.0283542708
-0.2109234737 -0.0005836729 0.0489442346
-0.1143083811 -0.0195397281 -0.0014999384
-0.0406776343 -0.0117945377 -0.0355966032
-0.2950291102 0.0103550742 0.0902714645
-0.0423802168 -0.0292694569 -0.0208426420
-0.1318244160 -0.0061995674 0.0105598922
-0.3001296420 0.0318240197 0.0998861324
-0.2849551126 -0.0001303326 0.0700714541
-0.0539016691 -0.0274334562 -0.0228955305
-0.1096924577 -0.0177826581 -0.0138105929
-0.1663552270 -0.0096305658 0.0094015048
-0.1999741121 -0.0018890977 0.0336479014
-0.0582251337 -0.0217979002 -0.0437323114
-0.0677024445 -0.0110674641 -0.0323677341
-0.2339163570 -0.0006269918 0.0442928645
-0.0907337296 -0.0145838944 -0.0295810752
-0.0407212150 -0.0263533242 -0.0443815900
-0.0529486515 -0.0164542027 -0.0495731818
-0.2964484019 0.0113457313 0.1091529072
-0.2963199841 0.0150604591 0.0985836515
-0.3028980168 0.0431364507 0.1057499530
-0.0793652483 -0.0384813470 -0.0450551852
-0.0922920532 -0.0273875313 -0.0214549975
-0.0901294860 -0.0431649359 -0.0238294953
-0.1005628061 -0.0516645498 -0.0423440064
-0.1077026840 -0.0470751632 -0.0365268464
-0.0862475802 -0.0322334548 -0.0210023575
-0.0865857500 -0.0217495110 -0.0447698163
-0.0896003939 -0.0308603957 -0.0146044697
-0.0863634287 -0.0357945878 -0.0237613816
-0.0917557485 -0.0328136994 -0.0100153138
-0.0860992931 -0.0380379235 -0.0289478839
-0.0934517649 -0.0286514894 -0.0117752413
-0.0933182256 -0.0259222311 -0.0273926016
-0.0992543257 -0.0188401556 -0.0383358816
-0.0816058340 -0.0304699931 -0.0777940883
-0.0915307832 -0.0517859280 -0.0409841090
-0.1045838801 -0.0236718884 -0.0451900565
-0.0809060439 -0.0382738437 -0.0829810336
-0.0956858425 -0.0464724632 -0.0238531495
-0.1098448254 -0.0246565567 -0.0412683494
-0.0973110444 -0.0206120075 -0.0780358547
-0.0968090485 -0.0559380036 -0.0609688859
-0.1058233235 -0.0358161843 -0.0288725263
-0.1033834176 -0.0224305461 -0.0757829692
-0.1159176183 -0.0333155932 -0.0611168456
-0.0986644322 -0.0463020496 -0.0755439997
-0.1047639863 -0.0507914409 -0.0830603921
-0.1117698191 -0.0460635303 -0.0476568762
-0.1109905515 -0.0433728857 -0.0521380148
-0.1121381745 -0.0401349810 -0.0855482564
-0.0759515084 -0.0337918183 -0.0581439982
-0.0812755737 -0.0455416688 -0.0400648296
-0.0791848303 -0.0423931635 -0.0811118394
-0.0955096980 -0.0178708615 -0.0820543756
-0.0924510119 -0.0551650999 -0.0561051812
-0.1121880947 -0.0239848041 -0.0634867714
-0.1143753465 -0.0292076916 -0.0686791870
-0.1120805631 -0.0455057522 -0.0765573157
-0.0802440275 -0.0320222872 -0.0507015362
-0.0796794969 -0.0406846716 -0.0553825146
-0.0960747230 -0.0228054866 -0.0345535590
-0.0914126761 -0.0495382810 -0.0433158295
-0.1034369741 -0.0275980178 -0.0255253282
-0.1092456013 -0.0297312318 -0.0442435242
-0.1053675700 -0.0351527444 -0.0177066756
-0.0899787758 -0.0278679815 -0.0755439997
-0.0972599983 -0.0262047985 0.0373136373
-0.0972599983 -0.0255594859 -0.0396224972
-0.0943889990 -0.0292123577 0.0087353546
-0.0972599983 -0.0192735834 -0.0587051318
-0.0968885908 -0.0288166948 0.0356938642
-0.0950735568 -0.0176022882 0.0379230089
-0.0950283973 -0.0283563655 -0.0176762870
-0.0955475675 -0.0219158124 -0.0735897925
-0.0943889990 -0.0160522915 -0.0591429619
-0.0873864100 0.0324054703 0.3785924830
-0.0600185494 0.0274147943 0.3546934454
-0.0935060785 0.0336673509 0.3953229919
-0.0353299496 0.0273140446 0.3683263784
-0.0667960989 0.0305123617 0.3937410102
-0.0237466838 0.0230218741 0.3983707186
-0.0091391426 0.0214728448 0.3903350927
-0.0678477272 0.0298039294 0.4041752034
-0.0170319154 0.0231647056 0.3263903691
-0.0362088468 0.0271247868 0.3528177082
-0.1138254953 0.0357345703 0.4096501379
-0.0180175925 0.0254249877 0.3584491267
-0.0321442154 0.0269576865 0.3719187786
-0.1150595004 0.0353182224 0.4224216154
-0.0097140941 0.0207471243 0.3975473607
-0.0537124834 0.0272924076 0.4052750677
-0.0780577899 0.0313654758 0.4043143253
-0.0204186638 0.0184996725 0.3407170862
-0.0724581359 0.0272615048 0.3681511844
-0.0104848077 0.0179877335 0.3669592863
-0.0643192281 0.0251840975 0.3824503683
-0.0490070038 0.0226635979 0.3682409250
-0.0189352701 0.0184101049 0.3746636894
-0.0597873982 0.0270825285 0.4136234372
-0.0425360758 0.0244075513 0.4059004759
-0.0864003431 0.0293085040 0.4062437830
-0.0200378708 0.0184569634 0.3402765561
-0.0111985717 0.0191597552 0.3526540517
-0.1001926495 0.0310673864 0.3944802571
-0.0847208243 0.0285303214 0.3940379230
-0.0148182413 0.0170819000 0.3646251066
-0.0098233626 0.0194840195 0.3745496074
-0.0136091354 0.0202341429 0.3957089114
-0.0237755025 0.0205389771 0.3890181618
-0.0916139070 0.0304849490 0.4133008051
0.0395185019 -0.0218091838 0.0387858804
0.0285272361 -0.0382135708 0.0523166791
0.0414290651 -0.0238006893 -0.0185523928
0.0379988820 -0.0074327221 0.0392303805
0.0252641342 -0.0374371983 0.0722051528
0.0402553085 -0.0306538887 -0.0641088058
0.0395256997 -0.0060932960 -0.0002179903
0.0305978993 -0.0205336948 0.1533954088
0.0287112046 -0.0315700825 0.1156634073
0.0403408960 -0.0331714891 0.0062729074
0.0325701628 -0.0125979700 -0.1018082184
0.0322459827 -0.0178107101 0.1289913425
0.0324304202 -0.0400934118 0.0149446090
0.0240266613 -0.0428557385 0.0204175585
0.0342255465 -0.0060316312 0.0871844259
0.0170731492 -0.0345389581 0.1235249640
0.0271687539 -0.0400725182 -0.0393255755
0.0168110081 -0.0440748300 0.0098434919
0.0212144676 -0.0332358378 -0.1035319668
0.0012271714 -0.0408466706 0.0672376831
0.0128060385 -0.0418922594 -0.0666998559
0.0210773285 -0.0349577633 -0.0967300884
0.0118695135 -0.0418231838 -0.0696465130
0.0025507252 -0.0402564050 -0.0805594752
-0.0056315958 -0.0388237934 0.0900428565
-0.0018718492 -0.0423450268 -0.0559410925
-0.0054205016 -0.0419006892 0.0552402288
-0.0015305603 -0.0339935576 -0.1120254656
-0.0197228118 -0.0408467592 0.0512930833
-0.0183001091 -0.0417993874 -0.0442451340
-0.0105289311 -0.0349924640 0.1320404565
-0.0254559969 -0.0418849172 0.0287049720
-0.0157052424 -0.0444903012 0.0139811251
-0.0218883766 -0.0291489141 0.1654471373
-0.0348959754 -0.0391133800 0.0112500062
-0.0312070143 -0.0335707565 0.0883113520
-0.0355174454 -0.0385949675 0.0233260429
-0.0341203438 -0.0321267100 -0.0883998260
-0.0387869975 -0.0346829813 -0.0464853659
-0.0293388660 -0.0258060162 0.1535789472
-0.0369507039 -0.0269933515 0.0796879826
-0.0301471176 -0.0207951492 0.1626193337
-0.0350671422 -0.0208491263 0.1002028696
-0.0419342679 -0.0246362186 -0.0474604847
-0.0374051829 -0.0162182652 -0.0869002314
-0.0294321414 -0.0101312277 0.1593932895
-0.0401276026 -0.0066182040 -0.0618375712
-0.0370473508 -0.0069979731 0.0553023192
-0.0336428006 -0.0106044768 0.1049801386
0.0407969892 -0.0249838623 0.0261861372
0.0270715454 -0.0393235318 0.0470211243
0.0416159200 -0.0260976723 -0.0056759170
0.0368423888 -0.0152056976 0.0652384371
0.0325270801 -0.0343421362 0.0748603299
0.0400772759 -0.0311810413 -0.0591143871
0.0396362631 -0.0073535642 0.0048007994
0.0365147436 -0.0200136020 0.0761618527
0.0261489580 -0.0343194866 0.0988479275
0.0386777470 -0.0350225864 -0.0277878821
0.0336569174 -0.0195646423 -0.1004939492
0.0328170348 -0.0179603826 0.1217275297
0.0178836809 -0.0412226719 0.0502590264
0.0188230695 -0.0429466545 0.0297319184
0.0354192186 -0.0175934238 0.0872095765
0.0137602072 -0.0314562156 0.1628834449
0.0298803875 -0.0387043372 -0.0475835047
0.0207773096 -0.0421759334 -0.0209992862
0.0237405996 -0.0310332191 -0.1074007439
0.0004361801 -0.0446475080 0.0239740533
0.0150062013 -0.0420862415 -0.0510490109
0.0177111824 -0.0329242418 -0.1086823496
0.0122558583 -0.0429360020 -0.0404200186
0.0115751066 -0.0375465779 -0.0933412069
-0.0091450582 -0.0393242636 0.0844281665
-0.0038007982 -0.0429989543 -0.0387666708
-0.0093239888 -0.0426285029 0.0469559638
-0.0020720269 -0.0396715034 -0.0834981556
-0.0183164440 -0.0407177926 0.0554724682
-0.0172881124 -0.0411717813 -0.0655840993
-0.0131083728 -0.0350231589 0.1266831296
-0.0223516871 -0.0401776060 0.0533355830
-0.0218646897 -0.0431633224 0.0086952366
-0.0211771898 -0.0315868819 0.1447188350
-0.0268063179 -0.0392047350 -0.0689380201
-0.0334495969 -0.0338297234 0.0774730093
-0.0288796701 -0.0410836669 0.0242096207
-0.0323077375 -0.0362057305 -0.0759552295
-0.0402132480 -0.0342495684 0.0189913604
-0.0283570458 -0.0240929543 0.1700430288
-0.0337377156 -0.0252481398 -0.0997433831
-0.0330627796 -0.0222067757 0.1270727128
-0.0354363224 -0.0225918932 0.0977236726
-0.0415880705 -0.0216182588 -0.0387992199
-0.0352611869 -0.0096611873 -0.0921598946
-0.0302780275 -0.0104531991 0.1487694847
-0.0414610239 -0.0194143905 -0.0644195786
-0.0383951255 -0.0069915249 0.0374145561
-0.0353120322 -0.0064216621 0.0774945894
-0.0019640582 0.0490471002 0.3067612112
0.0009375290 0.0510004389 0.3032381700
-0.0011563213 0.0421803311 0.2573056992
0.0002445153 0.0446168449 0.2582603768
0.0029939087 0.0441662438 0.3034465243
0.0356455948 0.0040990316 0.2360449011
0.0291394163 0.0254733332 0.2465268599
0.0337310182 -0.0062199606 0.2348638588
0.0011498267 -0.0371069375 -0.2646471419
-0.0040432449 -0.0377569740 -0.2539404343
-0.0312587569 -0.0073366222 0.2507181751
-0.0351127069 0.0054831338 0.2448839495
-0.0269623759 0.0288224492 0.2431584466
0.0381532967 0.0136223167 0.1773099020
-0.0403160735 -0.0041579162 -0.1947845085
-0.0396788101 0.0105440352 -0.2025608038
-0.0392987850 -0.0104602957 -0.1977750280
-0.0370060265 0.0175426982 0.1381156375
-0.0369906973 0.0175799409 -0.0410513368
0.0367164025 0.0176672708 -0.1576107832
0.0387505379 0.0127574716 -0.2009422741
0.0397759696 -0.0064484799 -0.1922539774
0.0283346627 0.0299849345 -0.1992301629
0.0382888911 0.0138701321 0.1589139718
0.0382024616 0.0140787995 -0.0183265624
-0.0377107651 0.0135493796 0.1935327205
-0.0103963483 0.0107912179 -0.2714646617
-0.0113670650 0.0195876749 -0.2607749951
-0.0165216131 0.0164277456 -0.2601170099
0.0248625242 0.0125159228 -0.2566502556
-0.0295203781 0.0197161229 -0.2368831234
0.0327444935 0.0129471161 -0.2382292188
0.0381447987 0.0142180156 -0.1399385287
0.0145804771 0.0306464976 -0.2414941996
0.0059830813 0.0390346978 -0.2198601819
0.0240846387 0.0251579179 -0.2401526826
-0.0082703396 0.0405477249 -0.1735031175
0.0038863762 0.0410936177 -0.1769882275
-0.0050724190 0.0409687903 -0.1590208838
-0.0121373073 0.0396299204 -0.1523277867
-0.0289292232 0.0292927590 -0.2073668641
-0.0369815969 0.0142880020 -0.2204213466
-0.0396361317 -0.0088757766 -0.2054862458
-0.0383157449 -0.0118842160 -0.2147006692
0.0303324737 -0.0260611223 -0.1952374454
-0.0229933804 0.0342674524 -0.1703925988
0.0322117756 -0.0229170640 -0.2221291038
0.0263848074 0.0314816664 -0.1717278962
0.0270803785 -0.0293980047 -0.1995160099
-0.0229398280 -0.0322867251 -0.2240987758
0.0158919343 -0.0364251225 -0.1800983378
-0.0298306831 -0.0226460503 -0.2444849089
-0.0337605067 -0.0219037292 -0.1526023621
0.0326448079 0.0245978934 -0.1754608994
0.0276060419 -0.0127184878 -0.2659000316
-0.0237355614 -0.0321469481 -0.1754266878
0.0102963170 -0.0386986318 -0.1964511770
-0.0283274733 -0.0104391996 -0.2653840831
-0.0323661900 0.0252720028 -0.1745670268
0.0246604115 -0.0182564154 -0.2713498343
-0.0175783254 -0.0344692097 -0.2405811118
-0.0023257720 -0.0397776293 -0.2200725736
0.0166703233 -0.0192551494 -0.2981368307
-0.0223224195 -0.0241718758 -0.2710003764
0.0150633804 -0.0133060233 -0.3010570155
-0.0142148718 -0.0338049687 -0.2625893259
-0.0149483904 -0.0073059755 -0.2976585127
-0.0113503779 0.0069077177 -0.2793130744
-0.0076029660 -0.0091045574 -0.3081617808
0.0029246431 0.0007349964 -0.2975725658
-0.0002897654 -0.0357705133 -0.2792789121
-0.0408782777 0.0001105097 -0.1773623536
0.0389388634 0.0123029900 -0.1805348483
-0.0023435770 0.0290066411 -0.2512546614
0.0041182064 0.0392738924 -0.2199154782
0.0186822565 0.0359723938 -0.2114536840
-0.0056584817 0.0408916243 -0.1988461997
0.0028973641 0.0412238394 -0.1777465064
-0.0149211921 0.0384767981 -0.1892527756
-0.0169597982 0.0376323802 -0.1689995195
0.0358113866 0.0186444628 -0.2101728865
-0.0337878580 0.0192686766 -0.2265242022
0.0388200064 -0.0029528375 -0.2258956561
0.0370356437 -0.0118279258 -0.2285456632
0.0291586312 -0.0274040784 -0.2094942887
0.0289522277 -0.0278603337 -0.1936818247
0.0338819369 0.0020925299 -0.2487753613
0.0374407735 -0.0143667893 -0.1782810365
-0.0328742382 0.0022917654 -0.2517560296
-0.0390133811 -0.0111494603 -0.1868260695
0.0298067584 -0.0074927550 -0.2615189818
-0.0279626580 -0.0289036759 -0.1766232612
-0.0392043683 -0.0106868541 -0.1653539772
0.0122536602 -0.0379321440 -0.1585919522
-0.0247982621 -0.0297382635 -0.2359715854
0.0037754597 -0.0395567110 -0.2088354395
0.0232125915 -0.0075760668 -0.2779224264
-0.0181948287 -0.0355698156 -0.1716281200
0.0007812441 -0.0399514672 -0.1774500868
-0.0249918632 -0.0154391218 -0.2730928373
-0.0185790633 -0.0354106605 -0.2026689282
-0.0038455860 -0.0395793270 -0.1696536488
-0.0189125500 -0.0150830181 -0.2937456603
-0.0357929935 0.0204735290 -0.1623299197
-0.0143348801 -0.0199995686 -0.3032240388
0.0090369173 -0.0003737496 -0.2959689473
0.0121642138 -0.0341056352 -0.2660251274
0.0145279052 -0.0261572301 -0.2967841717
-0.0071890957 -0.0017527525 -0.2992405732
0.0063531075 -0.0341580880 -0.2847165819
0.0403443589 0.0036707928 -0.1594717657
0.0220940365 0.0347747594 -0.1785028504
-0.0399290722 0.0086439552 -0.1789245208
0.0020118827 0.0692165253 0.3110493198
0.0048047391 0.0671002660 0.3227209937
0.0013134668 0.0341329634 0.3557051117
0.0025326676 0.0379551622 0.2847883381
0.0037780456 0.1176271739 0.3744184701
0.0068044337 0.0435019649 0.3282584023
0.0069424556 0.0405881349 0.3174736082
0.0021436818 0.1563353678 0.4024577719
0.0039072176 0.0922345892 0.3786935126
-0.0014512565 0.0381094143 0.3873359727
0.0027605155 0.1186111668 0.3936461867
-0.0072869193 0.0363972324 0.3136906992
-0.0056169680 0.0385035100 0.2972133118
-0.0065539284 0.0508224232 0.3183846958
0.0027364959 0.1055054426 0.3912507873
-0.0042865659 0.1110213930 0.3703736058
-0.0065813046 0.0541640582 0.3470958582
-0.0069470838 0.0464508180 0.3183502183
0.0024108012 0.0786510010 0.3874672796
0.0002137705 0.1449726538 0.4205182124
0.0040359812 0.0495467167 0.3677412077
-0.0004574413 0.0858225728 0.4064775312
-0.0013916044 0.0561989447 0.3920922473
-0.0035765336 0.0686869984 0.3777980268
-0.0068295634 0.0386668047 0.3449940242
-0.0044003856 0.1082963600 0.3639049055
-0.0002302691 0.1621960761 0.4154441685
-0.0002979062 0.1554336542 0.4240935140
0.0024056841 0.1107276666 0.3493571590
0.0033387520 0.0961236504 0.3410109801
0.0049210308 0.0638832024 0.3202964548
0.0041150071 0.0364695859 0.3123498874
0.0042819042 0.1053947491 0.3624763411
0.0060459644 0.0618059227 0.3450190428
0.0052053751 0.0829315186 0.3480169166
0.0059596920 0.0646510308 0.3327713489
-0.0018506675 0.0407893585 0.2858501824
0.0016181652 0.1592229777 0.3982072833
-0.0032407445 0.0885384604 0.3307920517
0.0045822103 0.0627720685 0.3665591027
-0.0049921299 0.0602662196 0.3150059865
-0.0024387380 0.1345347470 0.3721052113
0.0019153878 0.1296592743 0.4030816372
-0.0066617303 0.0533786208 0.3238874303
-0.0055267695 0.0802366841 0.3588291564
-0.0069590414 0.0458611574 0.3236705585
0.0022075908 0.0762555705 0.3885057429
0.0000414396 0.0577741166 0.4012444476
0.0001142343 0.0438583759 0.3973762813
0.0006095015 0.1601542700 0.4193116097
-0.0015278154 0.0523169355 0.3900982360
-0.0029382826 0.0606769805 0.3809413215
-0.0038168490 0.0921938991 0.3814560503
-0.0028639878 0.1455962491 0.3880643835
-0.0025099383 0.1187572678 0.3979307504
-0.0047270274 0.0909932361 0.3734019410
-0.0073652496 0.0243072802 0.4315562674
0.0031951938 0.0141901541 0.4218378530
0.0117013353 0.0209159903 0.4089544997
-0.0176836170 0.0125676735 0.3683576103
-0.0307463365 0.0083258908 0.2787118807
-0.0334041106 0.0107826773 0.2572269348
-0.0313758004 0.0047307424 0.2712447045
-0.0055588382 0.0166485000 0.4254639089
-0.0202824679 -0.0010385338 0.3226015150
-0.0233225178 0.0256465836 0.3044415229
-0.0214757655 -0.0168268883 0.2623786443
-0.0200254317 0.0300275662 0.3038317495
-0.0036926864 0.0101262458 0.4093191319
-0.0049559112 0.0075037928 0.3989314939
-0.0320429233 -0.0137019161 0.2265658623
-0.0030106571 0.0090867172 0.4068064027
-0.0277297101 -0.0237538680 0.2062230815
-0.0035525342 0.0036252897 0.3854243476
-0.0246705425 -0.0314295767 0.1236912192
-0.0213864236 -0.0339493421 -0.0274296458
-0.0051895589 -0.0301955587 0.2331837332
0.0014181301 0.0156268569 0.4278334393
-0.0309187764 -0.0256074790 0.0902188239
-0.0306051339 -0.0260162628 0.1134186041
-0.0246162266 -0.0314712510 0.0424768915
-0.0255407789 -0.0307618811 -0.0546832763
-0.0124921940 -0.0379319231 0.1641635995
-0.0121100407 -0.0346681847 0.1966712602
0.0032210296 -0.0099144936 0.3289441402
-0.0370944236 -0.0076112393 0.2060463735
-0.0326903128 -0.0232985591 0.0623597200
-0.0283515394 -0.0286053037 -0.1009755336
-0.0155653846 -0.0366589664 0.0390378873
-0.0021277206 -0.0350613645 0.2075132022
0.0083338570 -0.0248330194 0.2579577408
-0.0123390339 0.0390934380 0.2498940421
-0.0357289888 -0.0190749385 0.0864732107
-0.0359858561 -0.0184548943 0.1355578521
-0.0180415719 -0.0356332966 -0.0949092428
-0.0104097240 -0.0387150368 0.1277285147
-0.0072346658 -0.0374201607 0.1847368372
-0.0029433003 0.0337632038 0.3901875956
-0.0002111635 0.0330425402 0.4102347117
-0.0385062903 -0.0123708952 0.0275366837
-0.0373698972 -0.0151140000 -0.0362065324
-0.0110028487 -0.0385488298 -0.0761809109
-0.0075839904 -0.0390870969 0.1339484709
-0.0106152903 -0.0386879702 -0.1049168831
0.0060533704 -0.0012022262 0.3628787541
0.0034551420 0.0366888922 0.3283229419
0.0007256703 0.0324423803 0.4195299479
-0.0406603601 -0.0015436169 0.1645501354
-0.0402388905 -0.0047423042 0.0875815462
-0.0348161174 -0.0205279063 -0.1411864871
0.0021373361 -0.0397729126 0.0671126751
0.0026886850 -0.0397003173 -0.0280637975
0.0136250364 -0.0293328411 0.2255337379
-0.0125699491 0.0393285891 0.1969449295
-0.0408232945 -0.0003070476 0.0948296247
-0.0408673420 0.0000272452 0.1359380153
-0.0178684456 -0.0357050078 -0.1413692096
0.0044915122 -0.0394629418 0.1271566010
0.0033359893 -0.0396150878 -0.0781651040
0.0192041905 -0.0255821110 0.2308661248
0.0052827764 0.0357642724 0.3467605480
-0.0033373144 0.0411972489 0.1775498827
-0.0193277779 0.0366515314 0.0139336550
-0.0228388307 0.0343859706 0.0566213278
-0.0209225169 0.0358562766 0.0354289856
0.0036634730 0.0300914170 0.4318108267
-0.0408722123 0.0014871808 -0.0508797969
-0.0397078658 -0.0087724454 -0.1268668491
0.0121092680 -0.0379919532 0.0405271485
0.0085670189 -0.0389263259 -0.1097003236
0.0260362977 -0.0219939672 0.2231521390
0.0215623309 -0.0048436964 0.3036722623
0.0050564230 0.0409395803 0.2093885258
-0.0036096643 0.0411613890 0.0233640366
-0.0115441981 0.0398755942 0.0835600257
-0.0112071023 0.0400152238 -0.0398900259
-0.0276028068 0.0307307746 0.1182703479
-0.0250473534 0.0326914652 -0.0370939374
-0.0405636777 0.0038290860 -0.0973523263
0.0137143084 -0.0373271241 -0.0399436596
0.0180020628 -0.0355510791 -0.0467238611
0.0261519228 -0.0258862423 0.2000788506
0.0096088116 0.0336696531 0.3520407434
0.0074938549 0.0406186539 0.2017881171
-0.0097367352 0.0403546468 0.1398294618
0.0074814717 0.0406202568 -0.0029300333
0.0006980572 0.0415134189 0.0813892851
-0.0282733085 0.0302163272 -0.0794553081
-0.0341715877 0.0229189501 0.1716627170
-0.0327694254 0.0233781429 0.2046002030
-0.0385009217 0.0097552568 0.1940490490
0.0248769287 -0.0310886184 -0.0701072280
0.0238002727 -0.0319146909 -0.0573810764
0.0300785879 -0.0201243153 0.2076955361
0.0225454429 -0.0328774687 0.1712015876
0.0327585308 -0.0214985102 0.1798680698
0.0136508302 0.0385608482 0.2341636505
0.0067524521 0.0407162457 0.1635507761
0.0045060174 0.0410120304 0.1408545186
-0.0146460495 0.0385907658 -0.0964247185
-0.0341672457 0.0229246093 0.1215581296
-0.0330252370 0.0244130384 -0.0336835508
-0.0397524302 0.0099783136 0.1412594848
0.0105401586 -0.0386418992 -0.1345256509
0.0301221541 -0.0263352832 0.1147322962
0.0304592708 -0.0258958368 0.0300488536
0.0174540296 0.0338976161 0.2837414479
0.0127060354 0.0392957628 0.1321209981
0.0149847413 0.0383518924 0.0658177353
0.0076150860 0.0406026640 -0.0826298005
-0.0307932062 0.0273221405 -0.1133488834
0.0284996037 -0.0283090933 -0.0808933084
0.0367210862 -0.0161041006 0.0740433831
0.0383418444 -0.0121927625 0.1320056105
0.0351573907 -0.0197716306 0.1482988797
0.0327425600 -0.0229194687 -0.0627201272
0.0284022814 0.0068759597 0.2916768436
0.0124452943 0.0394037652 -0.0284642914
0.0159459924 0.0379537294 0.0468749569
0.0148291658 0.0384163338 -0.0712891764
-0.0306081603 0.0275633187 -0.1207864808
0.0307887848 -0.0254663007 -0.1063815810
0.0391237159 -0.0103058903 0.1554355329
0.0377889385 -0.0135270775 -0.0425835772
0.0318985644 0.0133311826 0.2646286798
0.0203915016 0.0360810952 -0.0007970601
0.0216888648 0.0350856837 -0.0187905691
0.0191867822 0.0366113511 -0.0990048115
0.0231936178 -0.0323801516 -0.1380406646
0.0401043493 -0.0039445225 0.1591853618
0.0395021770 -0.0085245016 0.0166946693
0.0299153593 -0.0086147706 0.2540162341
0.0293892061 0.0280897753 0.1898179880
0.0285088696 0.0298529843 -0.0194260623
0.0227333494 0.0342842950 -0.0766384432
0.0394405582 0.0034533107 0.1879978244
0.0404655234 -0.0011975189 -0.0681094327
0.0396586898 -0.0073341021 -0.0900237143
0.0269727319 0.0185445852 0.2976300457
0.0319664530 0.0254821588 0.1217121228
0.0333657879 0.0236580641 0.1294212652
0.0254730676 0.0321822259 -0.1040216996
0.0404244323 0.0030588874 0.0833332795
0.0406292901 0.0015029418 -0.0641400321
0.0212660779 0.0221321944 0.3351596712
0.0346183229 0.0220253296 0.1118316203
0.0323303412 0.0250078145 -0.0396773262
0.0234740516 0.0337159858 -0.1216590230
0.0204590475 0.0350115687 0.2276345491
0.0258009225 0.0319306768 -0.1258873186
0.0396299724 0.0090930066 0.0352493727
0.0357295344 0.0200510151 -0.0851464289
0.0391914011 0.0081888498 0.1815274402
-0.0322148554 0.0223874687 0.2292241314
-0.0395864900 0.0112458251 0.1429904212
-0.0372468175 0.0129357336 0.2085163844
-0.0381988119 0.0146632419 -0.0523377741
-0.0379975082 0.0151495321 0.0636638299
0.0388975587 0.0124018720 0.1058206035
-0.0213649468 0.0189938119 0.3441579416
-0.0260607177 0.0114564970 0.3132326611
-0.0282304521 0.0113187870 0.2977744448
-0.0296319918 0.0046784839 0.2830060937
-0.0225350478 0.0222249667 0.3256562965
-0.0164087370 -0.0019722822 0.3360583833
-0.0229813272 -0.0108255364 0.2790658552
-0.0181673368 -0.0182044056 0.2669527577
-0.0227117255 -0.0222090331 0.2348959093
-0.0233329463 -0.0240036279 0.2243084476
-0.0255436750 -0.0245475592 0.2133630490
-0.0066957368 -0.0115647396 0.3194206879
-0.0196737854 0.0344535958 0.2601632474
-0.0318133199 -0.0111648915 0.2356275696
-0.0347228812 -0.0201691549 0.1746121798
-0.0238965376 -0.0320234379 0.1677407001
-0.0191623540 -0.0323344987 0.1924150888
-0.0033528052 -0.0191746142 0.2868476832
-0.0295207872 -0.0274295386 0.0627315403
-0.0294724941 -0.0274924812 -0.0223650592
-0.0270246037 -0.0296234052 0.0596093336
-0.0289585434 -0.0281395752 0.1269429071
-0.0166474916 -0.0362107433 0.0610159113
-0.0200734741 -0.0347916555 0.0931409329
0.0030734502 -0.0135844515 0.3123239062
-0.0374902736 -0.0131769534 0.1787561842
-0.0340488799 -0.0215278800 0.1074141365
-0.0341422883 -0.0214061368 -0.0383404338
-0.0134415126 -0.0375387026 0.0949432498
-0.0130737453 -0.0376910367 -0.0490074067
0.0060264505 -0.0209315019 0.2771038659
-0.0118445327 0.0393949305 0.2360056270
-0.0356363880 -0.0192984648 0.0569316076
-0.0368136167 -0.0164567884 0.1305002225
-0.0192894209 -0.0351164208 -0.0906141349
-0.0020519816 -0.0398154883 -0.0496225688
-0.0063462036 -0.0386548104 0.1763387692
0.0086337492 -0.0195553587 0.2806994095
-0.0161397700 0.0375750889 0.2418212141
-0.0391911328 -0.0107177749 -0.0343738227
-0.0389975753 -0.0111849974 0.0096310243
-0.0145265757 -0.0370892550 -0.1085328248
-0.0032562325 -0.0396569263 0.1420719111
-0.0065978573 -0.0392169396 -0.0935621928
0.0069607652 0.0014023165 0.3715556533
0.0021353017 0.0354743228 0.3562595584
-0.0403776831 0.0037427606 0.1752805278
-0.0406041398 -0.0019702930 0.1606891824
-0.0363387132 -0.0176031435 -0.0710016119
-0.0346493703 -0.0207452350 -0.1231762804
0.0071078935 -0.0391184468 -0.0251787335
0.0008541954 -0.0399418618 0.0860025339
0.0098406692 0.0025730804 0.3700875381
-0.0162300280 0.0379070726 0.1775313581
-0.0408619917 -0.0000133602 0.1030048617
-0.0409429525 0.0006010811 -0.0503510186
0.0063700613 -0.0392155960 0.1495354062
0.0084111369 -0.0389468506 0.0929359054
-0.0105397148 -0.0386979211 -0.1428279879
0.0130498678 -0.0005131204 0.3505025968
0.0030910655 0.0408628307 0.2421014867
-0.0194704201 0.0365924471 0.0566519178
-0.0179388150 0.0372268584 0.0081008341
-0.0233860433 0.0339661177 0.1210050095
-0.0247706000 0.0329038063 0.0647010549
-0.0409225875 0.0011051935 0.1384205479
-0.0401996148 0.0065873825 0.0172532886
0.0133092766 -0.0374948937 0.1250552253
0.0133505775 -0.0374777863 0.1640605461
-0.0034449261 -0.0396320813 -0.1250323842
0.0151647330 0.0046373971 0.3600149482
0.0078317551 0.0385506722 0.2873073684
-0.0050269772 0.0409747736 0.0940818915
-0.0003804904 0.0415865695 -0.0124652880
-0.0133816225 0.0391145084 0.0554915468
-0.0187014024 0.0369109845 -0.0319629555
-0.0246840501 0.0329702124 -0.0555547844
-0.0273973418 0.0301476489 0.2101137880
0.0121613385 -0.0379703849 -0.0653181017
0.0157206106 -0.0364960870 0.0093754735
0.0122416992 -0.0379370985 -0.0850848192
0.0211253667 0.0002102197 0.3220690098
0.0117358647 0.0393126962 0.2401017949
-0.0076870012 0.0406245322 0.0376077179
-0.0071351574 0.0406971926 0.0097909963
0.0031994245 0.0411840676 -0.0200358746
-0.0201091768 0.0363278655 -0.0917553216
-0.0292296933 0.0293599344 0.0445034063
-0.0314671801 0.0264437212 0.1234687291
-0.0399287460 0.0086413382 -0.0215533954
0.0226821467 -0.0327725816 -0.0033756149
0.0231077796 -0.0324460115 0.0880090958
0.0283410962 -0.0144169250 0.2417180587
0.0250491976 -0.0309564437 0.1107494387
0.0270531035 -0.0294189316 0.0138722590
0.0160758494 0.0362577691 0.2689503666
0.0094703004 0.0403583907 0.1517381415
0.0046885866 0.0409879918 0.1319851615
0.0016250001 0.0413913697 -0.0800234014
-0.0316107328 0.0262566228 -0.0206918831
-0.0326990830 0.0248381290 -0.0117694941
-0.0401461533 0.0069927723 0.0872749090
0.0134162332 -0.0374505908 -0.1317931439
0.0306306976 -0.0256723744 0.1268628254
0.0296520497 -0.0269480850 0.1630393451
0.0096730672 0.0312303097 0.3804532926
0.0112924011 0.0398813089 0.1637573819
0.0116632258 0.0397277084 0.0838093327
0.0065484394 0.0407431078 -0.0936101353
-0.0347825599 0.0221226437 -0.0776213551
0.0286532857 -0.0281911796 -0.1056783921
0.0358142092 -0.0182926460 0.0831753382
0.0355980932 -0.0188141937 0.0165102056
0.0344003029 -0.0207585279 0.1218854087
0.0316861814 -0.0242965047 0.0119878231
0.0330427560 0.0046406304 0.2582609527
0.0164289408 0.0377536857 -0.0687608024
0.0140925813 0.0387214370 -0.0541137502
0.0121907659 0.0395091943 -0.0898137197
-0.0293075049 0.0292585191 -0.1301367737
0.0290589856 -0.0277211701 -0.1058316343
0.0378903418 -0.0132823633 0.0419714354
0.0370843734 -0.0152273881 -0.0509649423
0.0329309749 0.0106513305 0.2592265953
0.0226475747 0.0343501064 -0.0275221412
0.0256140471 0.0320740584 -0.0092344111
0.0168483887 0.0375799448 -0.1052141669
0.0240946587 -0.0316888210 -0.1442732742
0.0394113387 -0.0092153954 0.0294368681
0.0404807755 -0.0010815151 0.1419070204
0.0158004936 0.0208457387 0.3811859425
0.0241921351 0.0331650309 0.1644970959
0.0227944174 0.0342374402 0.1073424642
0.0279896639 0.0302513487 -0.0718378566
0.0387007551 0.0048652431 0.1975861397
0.0407210575 0.0007460125 0.0329616524
0.0393746724 -0.0094942706 -0.1089453585
0.0280560794 0.0199398270 0.2828532975
0.0328120233 0.0243799207 0.1031719303
0.0313303473 0.0263113506 0.1099047843
0.0180932329 0.0370643138 -0.1486561613
0.0406042948 0.0016927874 -0.0135180284
0.0403385085 0.0037114996 0.0147194574
0.0227115894 0.0239679251 0.3155375853
0.0345922371 0.0220593337 0.0030655375
0.0339391128 0.0229107100 0.0127716249
0.0249239839 0.0326035145 -0.1222280705
0.0355864314 0.0203954538 0.1345575334
-0.0360543050 0.0198418301 -0.0945423843
0.0399783486 0.0064470037 0.1610716941
0.0288996797 0.0294798328 -0.1479046076
0.0396307613 0.0090870147 -0.0991642100
0.0398404851 0.0075025876 -0.1484905152
-0.0364646168 0.0188504121 -0.0277521284
-0.0375338533 0.0162695858 0.1636110139
0.0362496512 0.0187932381 0.0219107641
-0.0381718466 0.0147283821 -0.0140227789
0.0372933894 0.0162735801 0.0619303935
