-0.0065886564 0.0575121125 0.2884255188
-0.0067023060 0.0742275172 0.2970765520
-0.0051883221 0.0624166783 0.3156780280
0.0021217077 0.0702386050 0.3095775232
0.0023220123 0.0536002466 0.3054505436
0.0040856660 0.0706649603 0.2895246980
-0.0088411082 0.0564619411 0.2341382630
-0.0050863010 0.0719793796 0.3203149985
0.0046995595 0.0596143480 0.2765206926
-0.0090202420 0.0687950759 0.2713713646
0.0008772247 0.0609647067 0.3252673134
0.0046771074 0.0817512060 0.2764083951
0.0043530980 0.0762168771 0.2647686757
-0.0054206735 0.0639630391 0.2287611476
-0.0023033788 0.0900690734 0.3451783591
-0.0065367265 0.0900504521 0.2694260103
-0.0053430644 0.0827435914 0.2544205966
-0.0026216937 0.1219656571 0.3587370195
0.0036562006 0.0766646440 0.2576116809
-0.0021098723 0.0577506807 0.2011518604
-0.0032706232 0.0748709834 0.3363470114
0.0014986535 0.1122178451 0.2840052942
0.0046222330 0.0560810104 0.2243902622
-0.0023053093 0.1113783005 0.2752076132
-0.0048464659 0.1111550822 0.2828295394
-0.0066880154 0.1267671359 0.3204877465
-0.0009448539 0.1362224952 0.3006819337
0.0024553264 0.0585045132 0.2157388521
-0.0038917593 0.1565741247 0.3271993030
0.0004957599 0.0967253310 0.3416265602
-0.0043403070 0.1622024059 0.3546753484
-0.0002989817 0.1697410351 0.3737576974
-0.0041572030 0.1203839964 0.3461310722
-0.0053656227 0.1327285558 0.3097717989
-0.0023828831 0.1800085426 0.3789745172
-0.0045308365 0.1463125872 0.3462882718
-0.0001618402 0.1723616823 0.3403629849
0.0005310721 0.1269623480 0.3508527182
0.0007615155 0.1323843134 0.3449662831
-0.0038417672 0.1454184938 0.3542754173
0.0016488018 0.1458886332 0.3232052875
0.0010595693 0.1728078591 0.3522583289
0.0017089127 0.1620531349 0.3481965477
0.0013439193 0.1494516121 0.3454645227
-0.0041326788 0.0979010766 0.3400889874
-0.0041529896 0.0823760741 0.3108282842
-0.0030577498 0.1024289045 0.3234797964
-0.0004941469 0.1563371655 0.3574927271
-0.0074659592 0.0832407777 0.2953465148
0.0020000339 0.0787347026 0.3116795813
0.0015563542 0.1018103019 0.3229141874
-0.0068686958 0.0876380787 0.3018843147
0.0046579778 0.0900098819 0.2937484300
0.0030607770 0.1071230798 0.2894876490
0.0011827188 0.0957303385 0.3336059748
-0.0076672722 0.1055395592 0.3035685429
0.0038840611 0.1057330522 0.3066244479
-0.0042737390 0.0926314531 0.3367612789
0.0026247287 0.0848487152 0.3069458533
0.1058513565 0.0325719070 0.3643150130
0.0918777301 0.0312305192 0.3545328236
0.0352174706 0.0296041671 0.3235247079
0.1009686227 0.0316995571 0.3547618690
0.0522716769 0.0296115993 0.3367120385
0.0213881394 0.0286607699 0.3207504931
0.1213558544 0.0347213213 0.3580260147
0.0835096015 0.0318873619 0.3443946832
0.0834184270 0.0300350562 0.3265175346
0.0918413573 0.0330296712 0.3407204554
0.0640551277 0.0285512240 0.3097867102
0.0756967394 0.0316218879 0.3373613207
0.0602845516 0.0284921605 0.3158681441
0.0514405378 0.0280075074 0.3068961237
0.0790883846 0.0328076131 0.3276539062
0.0281380552 0.0261690562 0.2771669860
0.0896123165 0.0339725485 0.3226277188
0.0302354621 0.0296758473 0.3069298188
0.1191871914 0.0348131628 0.3341570667
0.0641604156 0.0328227189 0.3018833740
0.0242292678 0.0310647276 0.2762610450
0.0307416797 0.0312837527 0.2752763273
0.0985469410 0.0312153521 0.3319996832
0.0948934487 0.0328891768 0.3462300427
0.0776324982 0.0295540296 0.3220762653
0.0766014228 0.0314811812 0.3397478347
0.0742954839 0.0291635958 0.3067719211
0.0941805870 0.0336368085 0.3356775926
0.0316911024 0.0273718005 0.3008822224
0.0509090013 0.0280139140 0.3074726273
0.1138570483 0.0349280097 0.3335080405
0.0331962545 0.0268194095 0.2863047346
0.0338075715 0.0262256419 0.2664085300
0.0336977569 0.0299774999 0.3074547596
0.0648051120 0.0312643918 0.2865514374
0.0253648810 0.0299539451 0.2539426664
0.0307777223 0.0311157167 0.2863423193
0.0414010936 0.0316725186 0.2774404374
-0.0848674983 0.0307663299 0.3510521478
-0.0715157104 0.0298094320 0.3450378254
-0.1275509946 0.0343329807 0.3698592333
-0.0671009229 0.0294960566 0.3403247898
-0.0445734157 0.0288096238 0.3319245782
-0.1203680090 0.0321908476 0.3416524952
-0.0877534102 0.0298391157 0.3115774644
-0.0844080985 0.0297305398 0.3181184652
-0.0800789254 0.0293675435 0.3145053907
-0.0613779519 0.0280398492 0.3003769993
-0.0794491838 0.0320734424 0.3324915759
-0.0598906714 0.0287081664 0.3256547818
-0.0505960550 0.0278225556 0.3044115877
-0.0847922103 0.0329812842 0.3275391712
-0.0251546797 0.0260743061 0.2812878662
-0.0775915105 0.0328451075 0.3197939723
-0.0190323141 0.0254236110 0.2839781657
-0.0817686836 0.0333225554 0.3064584855
-0.0788167584 0.0332406258 0.3068165754
-0.0413317180 0.0315597732 0.2892100226
-0.0459422940 0.0317548254 0.2804191152
-0.1375020639 0.0353404049 0.3660974311
-0.1094527870 0.0336763166 0.3517920083
-0.1164669687 0.0324945863 0.3520244905
-0.0870994522 0.0321917161 0.3397887639
-0.0593579743 0.0278039905 0.2901387896
-0.1045052480 0.0338468793 0.3413183962
-0.0400473638 0.0273222671 0.2961523088
-0.0299665096 0.0275371759 0.3100184785
-0.0940335690 0.0339026156 0.3262028687
-0.0222694293 0.0249056689 0.2593287981
-0.1110126733 0.0346145494 0.3287329625
-0.0172960195 0.0289476429 0.2953111812
-0.1152526797 0.0343586194 0.3273007394
-0.1039664439 0.0338774317 0.3188220775
-0.0309103108 0.0310772676 0.2807811535
-0.0278563100 0.0308728116 0.2669246421
0.0003837884 -0.0399703097 -0.2247280976
-0.0079274508 -0.0251246139 -0.2254288803
-0.0019530821 -0.0431721960 -0.2243495905
0.0044211826 -0.0421132935 -0.2207433373
0.0346077675 0.0113570497 -0.0630465658
0.0305144405 0.0382821008 0.1634660290
0.0339481731 0.0129662432 0.1693582415
0.0298808547 0.0402212133 0.0856772361
0.0346394396 0.0115040368 0.1229578331
-0.0341299591 0.0117615629 -0.0973867307
-0.0346160010 0.0143728748 0.0509384239
-0.0334431808 0.0103593265 -0.1291470990
-0.0340190913 0.0112365237 0.0092378925
0.0332711246 0.0051494856 -0.0566411913
0.0333775008 0.0320449075 -0.0532189031
0.0350590752 0.0242517847 0.1101140953
0.0342490314 0.0280058775 0.0505879233
0.0339350999 0.0082328609 -0.0937993580
0.0337987445 0.0300909431 0.0671019340
0.0331190317 0.0045247183 -0.0875781101
0.0351790003 0.0179097939 -0.0136858772
0.0256841491 0.0462129693 -0.0817405077
0.0280094737 0.0432217743 -0.0697220148
0.0246823767 0.0475019554 -0.0939923289
0.0323677787 0.0347992235 0.0235115670
0.0351790003 0.0216358225 0.1282584692
0.0348756833 0.0251017022 0.1569117487
0.0213900292 0.0506446496 -0.0919815038
0.0331106165 0.0045065232 0.0701262675
0.0195005776 0.0510047762 -0.1231828569
0.0239945332 0.0483867107 0.0078831603
0.0245483515 0.0476743698 -0.0039844184
0.0333515443 0.0055227240 0.0823736642
0.0295117293 0.0410263924 -0.1017731610
0.0187958371 0.0526900700 -0.0115230952
0.0224520339 0.0498072998 0.0301301781
0.0228777687 0.0494716243 0.0396855582
0.0171351289 0.0531210539 -0.1185082538
0.0106427304 0.0569957679 -0.0901479364
0.0178220367 0.0534578740 0.1386020662
0.0175363750 0.0536831073 0.1236520150
0.0177135126 0.0535434411 -0.0016500799
0.0247889141 0.0473642757 0.0853716014
0.0318511838 0.0359240987 -0.0970522497
0.0130924184 0.0559346798 0.0356643696
0.0100456925 0.0572543763 -0.0347300986
0.0144728485 0.0525181694 -0.1565804040
0.0278741490 0.0397624825 -0.1590183864
0.0172913862 0.0460292158 -0.1936494460
0.0285156144 0.0425711443 0.0389021808
0.0293212045 0.0414423540 -0.0246916217
0.0035802228 0.0575554797 -0.1221566325
0.0099641116 0.0572897132 -0.0073630495
0.0114893394 0.0566290572 0.0662355675
0.0136249480 0.0522053039 -0.1623203792
0.0266586771 0.0364083159 -0.1906966428
0.0345314205 0.0198456838 0.1672020753
-0.0024564545 0.0586335683 -0.0808937539
0.0068065971 0.0581040011 -0.0454312866
0.0063325945 0.0581704834 -0.0159771309
0.0017298662 0.0560657719 -0.1561187814
0.0191044865 0.0501522032 0.2071586671
0.0250924452 0.0465172880 0.1677502296
0.0223975110 0.0371624158 -0.2063162633
0.0254503397 0.0465144278 0.1556080266
0.0350497992 0.0226832018 -0.1093114990
-0.0012102285 0.0587925889 -0.1028708881
0.0037060182 0.0585388797 0.1418130083
0.0025634931 0.0586991271 0.0524568806
0.0066766808 0.0579304245 0.1842421559
0.0138530831 0.0491602117 0.2618841186
0.0045683751 0.0555760156 0.2399584722
0.0279908996 0.0245557284 0.2256266510
0.0340198477 0.0096557126 0.1605396050
-0.0101392140 0.0569700024 -0.0692010292
-0.0040865338 0.0584053994 0.0025486315
0.0000210436 0.0589803540 0.0598214736
-0.0073775470 0.0563746319 -0.1332671373
0.0024233119 0.0577115833 0.2045669675
0.0116545915 0.0491377994 0.2763661770
0.0232965860 0.0304606883 -0.2210035224
0.0283469820 0.0298694751 0.2194424003
0.0344318896 0.0187867359 -0.1415886644
-0.0081244247 0.0551822115 -0.1532336936
-0.0066694201 0.0580438620 -0.0001941158
-0.0073788081 0.0579445661 0.1112553315
0.0001343197 0.0561443186 -0.1573801016
-0.0019787646 0.0562658048 0.2319277033
-0.0015745553 0.0513593753 0.3032806805
0.0264657879 0.0328775854 0.2294164603
0.0348662618 0.0198000855 -0.1188989679
-0.0113064990 0.0564643902 0.0585175857
-0.0093234157 0.0573233673 0.0013195625
-0.0118237191 0.0562403551 0.0593687547
-0.0049429188 0.0582366646 0.1648250039
-0.0042695126 0.0560832883 0.2292202238
0.0159009421 0.0447808442 0.2733182465
-0.0006365284 0.0511096176 0.3076773270
0.0172607938 0.0342812831 0.2920925662
0.0342992576 0.0151713974 -0.1485022138
-0.0162240208 0.0534752845 -0.1170196642
-0.0156951254 0.0545634466 0.1577772199
-0.0148133029 0.0549454100 0.0547780690
-0.0085005200 0.0573185566 0.1882190915
-0.0071867842 0.0561819150 0.2164345134
0.0131658480 0.0423312054 0.3016703232
-0.0033139969 0.0485914508 0.3242324426
0.0210555275 0.0279694112 0.2732114673
0.0175502974 0.0417203322 0.2747992618
-0.0192809742 0.0518632895 -0.0014613450
-0.0209907586 0.0505149969 -0.0199184604
-0.0161793343 0.0543091641 0.1365084429
-0.0092027926 0.0573708464 0.1584604494
-0.0104443862 0.0558964762 0.1982650434
0.0061639059 0.0405450267 -0.2300637868
0.0205431821 0.0423971272 0.2500845131
0.0250102763 0.0191933754 -0.2322763976
0.0246055191 0.0237681691 0.2502196181
0.0337158050 0.0090129371 0.1624005300
-0.0228164018 0.0490753410 -0.0032116639
-0.0214864914 0.0501240746 0.0697668318
-0.0209527708 0.0505449531 0.0178666598
-0.0243882983 0.0469145984 -0.1065105178
-0.0139837729 0.0494876252 0.2519550854
-0.0052912842 0.0449892968 0.3381599069
0.0223134289 0.0268500637 -0.2313069786
0.0128392481 0.0292249452 0.3216689119
0.0308900343 0.0375605035 0.1625172206
0.0344082212 0.0155622810 -0.1428267793
-0.0200313679 0.0452162315 -0.1801248344
-0.0160980411 0.0507369459 0.2202733752
-0.0034168506 0.0428606544 -0.2238394168
0.0198880098 0.0163066317 -0.2477939805
0.0032875973 0.0357723527 0.3760241343
0.0291774193 0.0099261356 0.2047423334
-0.0149691970 0.0449594601 -0.2019634944
-0.0181396264 0.0472930146 0.2346607509
-0.0070856333 0.0440203151 0.3321521780
0.0095143720 0.0280645027 0.3413307895
0.0154066818 0.0171749427 0.2946035628
0.0324625814 0.0222976318 -0.1789153384
-0.0275859246 0.0399805282 -0.1529616449
-0.0055823388 0.0368693197 -0.2364697658
0.0082263156 0.0291305022 0.3497109728
0.0077501119 0.0082251648 0.3012024223
-0.0228584138 0.0484483770 0.1722149533
-0.0056678878 0.0347954517 -0.2400234400
-0.0054896644 0.0340643906 0.3615874040
0.0072913189 0.0160167500 0.3313467366
-0.0278239606 0.0427365721 0.0389465761
-0.0273091408 0.0433987184 -0.0457710638
-0.0256224181 0.0455681806 0.0402126812
-0.0237736207 0.0479460638 0.1280882292
-0.0101159764 0.0384873144 0.3275329174
-0.0050834763 0.0324758751 0.3637340827
0.0064329535 0.0138783837 0.3268175110
-0.0241040891 0.0475209941 0.1524147282
-0.0161471585 0.0341786431 0.2952752562
0.0306766865 0.0348967319 -0.1507728831
0.0288554550 0.0125486836 0.2102856048
-0.0279394365 0.0425880949 0.1192836300
-0.0242184199 0.0446332989 0.1978756394
-0.0101350964 0.0329978839 0.3344460372
-0.0116832454 0.0303063361 0.3252997145
0.0017830057 0.0163093753 0.3520989851
-0.0254617853 0.0326018709 0.2329084859
0.0107334433 0.0056698865 -0.2696214408
-0.0023646023 0.0144943959 0.3416971549
-0.0288909295 0.0338063762 0.2035777528
0.0280793329 0.0166445808 0.2209599240
-0.0093277952 0.0077397285 0.2924669956
-0.0324274070 0.0068485321 -0.1462136563
-0.0228454718 0.0268996153 -0.2271833401
-0.0217883906 0.0212856675 -0.2382574895
-0.0028153563 0.0177961588 0.3534696336
-0.0286489836 0.0049413468 0.1923634563
-0.0306502011 0.0069388983 -0.1884559348
-0.0338693489 0.0271546043 -0.0155624831
-0.0338289989 0.0273415116 0.0073729547
-0.0319646441 0.0344494768 0.0220302700
-0.0255537035 0.0251237320 -0.2194880049
-0.0032510707 0.0126533772 -0.2696738208
-0.0056233143 0.0166751125 0.3387295370
-0.0331741038 0.0073154558 -0.0414816833
-0.0275378491 0.0130251438 -0.2205958423
-0.0333725649 0.0294559627 0.0692196651
-0.0328063672 0.0320771441 0.0698096812
-0.0159467485 0.0180268611 0.2911313722
0.0300005310 0.0399606190 0.0127847917
-0.0328227902 0.0065954645 0.1602601403
-0.0346160010 0.0168137862 -0.0288643092
-0.0330025232 0.0311687667 0.0724257604
-0.0337754797 0.0275892902 -0.0754851598
-0.0195568318 0.0102499076 0.2579546284
-0.0331640661 0.0073249167 -0.1018354641
-0.0328643928 0.0318097125 0.1531273609
-0.0330733646 0.0308430512 -0.0803860061
-0.0253252374 0.0090175001 0.2219713865
-0.0302832618 0.0381161622 -0.0529107168
-0.0285113356 0.0227310666 -0.2072846963
0.0334401380 0.0299775510 -0.1177004280
-0.0342114627 0.0136955655 -0.1236914520
-0.0318220791 0.0182383606 0.1936975690
-0.0346160010 0.0190633717 0.0707892350
0.0346738877 0.0116645443 0.1133065632
-0.0346160010 0.0161023423 -0.0800740395
-0.0326895284 0.0073383525 -0.1356502663
-0.0344465816 0.0193734445 -0.1114128016
-0.0340111291 0.0230027373 -0.1323401711
0.0330224137 0.0242985634 -0.1655385344
-0.0346160010 0.0145853892 0.0149590590
-0.0346160010 0.0146335410 0.1099176917
-0.0344263340 0.0131260259 -0.0831746083
-0.0335746784 0.0238641940 -0.1421178282
0.0310748296 0.0355592669 -0.1303188457
-0.0340805075 0.0115213352 -0.0297706185
-0.0336138714 0.0093565647 0.0089345001
0.0290277863 0.0310029901 -0.1919661693
-0.0301849850 0.0320663036 -0.1679862320
0.0294263302 -0.0034943320 0.0889944171
0.0297848181 -0.0027174076 0.1386395675
0.0289228206 -0.0043264309 0.1377481805
0.0237868968 -0.0104586669 -0.1497117679
0.0211066232 -0.0131535068 -0.0729337747
0.0247164001 -0.0097375666 0.0554125375
0.0175645441 -0.0159554508 -0.0335375827
0.0234332138 -0.0093076972 -0.1867493171
0.0144532115 -0.0176422509 -0.0588651327
0.0227420948 -0.0094272165 -0.1980447952
0.0117796384 -0.0188003154 -0.0381328020
0.0255712000 -0.0039545954 0.1817432839
0.0073167075 -0.0203266665 -0.0596321518
0.0250972756 -0.0044317412 -0.2105371889
0.0047917512 -0.0205058190 -0.1678261326
0.0021610937 -0.0210393507 -0.1013383398
0.0046926184 -0.0206894064 0.1569511105
-0.0047756419 -0.0198884577 -0.1999898018
0.0045008836 -0.0198768117 0.1634140094
-0.0022247266 -0.0209507059 -0.0956768407
-0.0012035646 -0.0210919550 0.1322175871
0.0103746337 -0.0041135706 0.2407599895
-0.0036289713 -0.0207557345 -0.1348513018
0.0077221422 -0.0027745542 0.2539256914
-0.0096747936 -0.0188904079 -0.1821256115
-0.0000138985 -0.0116027862 0.2151702266
-0.0204591985 -0.0132087946 -0.0743921241
-0.0106424990 -0.0188502288 -0.1628848013
-0.0102901083 -0.0151753985 0.1829883200
-0.0139284616 -0.0175707879 -0.1445258311
-0.0058731120 -0.0087104594 0.2262030105
-0.0168532857 -0.0110504470 -0.2362624546
-0.0221188368 -0.0119067535 0.1348292873
-0.0283216498 -0.0043547913 -0.0995838421
-0.0221460598 -0.0102178343 -0.1869177204
-0.0128275729 -0.0059275299 0.2248734577
-0.0263425485 -0.0065850169 -0.1348604739
-0.0203429515 -0.0045992366 -0.2418658022
-0.0262154690 -0.0070824902 0.1393232215
-0.0280148485 -0.0047599214 0.0607350879
-0.0168840656 -0.0031171780 -0.2575197295
-0.0253564262 -0.0081817276 0.0849094403
-0.0288469297 -0.0035022733 -0.0087834714
-0.0290363718 -0.0031137280 0.1156954175
0.0318103426 0.0260309182 -0.1767820257
0.0276499071 0.0436845451 -0.0751051583
0.0289652430 -0.0042718588 0.1046515272
0.0273508549 -0.0063486061 -0.0361127295
0.0241111761 -0.0105161262 -0.0205995782
0.0267109813 -0.0071717390 0.1005933792
0.0172297861 -0.0162202594 -0.1002462054
0.0212364449 -0.0119801686 -0.1847151232
0.0111637400 -0.0183648426 -0.1887812959
0.0204216907 -0.0136953192 0.1347921606
0.0111575668 -0.0189218618 -0.1608827716
0.0231308318 -0.0106710887 0.1631008697
0.0078325842 -0.0202546367 -0.1400900723
0.0086702561 -0.0201394763 -0.1057597570
0.0132555829 -0.0181610066 0.1139690771
0.0028633235 -0.0189650293 -0.2313667463
-0.0079609772 -0.0201597321 -0.0535280614
0.0342045188 0.0282123660 -0.1012425081
0.0105358958 -0.0134769255 0.1934345488
0.0238353881 0.0095780531 0.2341582092
-0.0069707176 -0.0202946852 -0.0948480403
0.0245136546 0.0114844665 0.2353112090
-0.0199096181 -0.0136541379 -0.0375726325
-0.0133750054 -0.0178654137 0.1466541061
-0.0229873637 -0.0112144641 -0.0718307773
0.0096718245 -0.0137710522 -0.2539139227
-0.0234111460 -0.0106885602 -0.0590316295
0.0158543114 -0.0096975256 -0.2491697202
-0.0249886419 -0.0086451506 -0.0915817982
-0.0167698131 -0.0160622552 -0.1174178197
-0.0246101011 -0.0088534931 -0.1298748749
0.0002562423 -0.0132299928 -0.2666616430
-0.0222407175 0.0069314510 0.2341120968
0.0318888390 0.0018533596 -0.0722446957
0.0327949184 0.0038216917 -0.0028130561
0.0305762538 -0.0009981746 0.0293002113
0.0300950553 -0.0017895676 -0.1133545033
0.0315664613 0.0011530080 0.1185979715
0.0299637459 -0.0023287611 0.1369480720
0.0318491666 0.0025164502 -0.1346103979
0.0311184717 0.0027746552 -0.1703323113
0.0221324538 -0.0003028969 0.2129055074
0.0150094699 -0.0012611968 0.2391716388
0.0090874134 0.0019954587 0.2725484801
0.0008951529 0.0025422200 0.2869193249
-0.0047972004 0.0028929965 0.2843730889
-0.0292226256 -0.0025578302 -0.1076163515
-0.0267912643 -0.0024275525 0.1778663225
-0.0279417291 -0.0020271720 -0.1789829644
-0.0305032223 0.0000677826 0.1490240777
-0.0314572349 0.0031000543 -0.1422426477
-0.0321568038 0.0036633743 -0.0526123365
-0.0299499124 0.0027086766 -0.1828710377
-0.0298254864 -0.0014032260 0.0894905086
-0.0262136997 0.0028935299 0.2008026631
-0.0322776296 0.0039210496 -0.0186466654
-0.0310149491 0.0011789331 0.1279186094
-0.0040833996 -0.0187430325 -0.2311760014
-0.0302811551 -0.0069741582 -0.0697697082
-0.0304744536 -0.0156196545 -0.0358150271
-0.0289087738 -0.0205972671 -0.0530355542
-0.0095608481 -0.0215865864 -0.0659983459
-0.0082947001 -0.0243271054 -0.0296720900
-0.0273879613 -0.0242471164 -0.0167294512
-0.0138705169 -0.0212330126 -0.0715921095
-0.0089094277 -0.0230133251 -0.0472579737
-0.0155004086 -0.0218695287 -0.0631297938
-0.0059881736 -0.0259544141 -0.0067537594
-0.0304297793 -0.0175180472 0.0007894316
-0.0204790982 -0.0266217167 0.0042534965
-0.0229515791 -0.0114756036 -0.1246912891
-0.0046180722 -0.0227349867 -0.0520316188
-0.0066124881 -0.0272088477 0.0285100496
-0.0008647514 -0.0222052189 -0.0967567534
-0.0301979411 -0.0057298155 -0.0173546453
-0.0109380935 -0.0270320195 0.0310009128
0.0011474793 -0.0226058596 -0.0813663519
-0.0301665510 -0.0044070929 0.0103402482
-0.0155918720 -0.0261964229 0.0445061968
-0.0244259625 -0.0267362789 0.0340881091
0.0051201453 -0.0220012871 -0.0604764810
-0.0304174773 -0.0211665655 0.0351347827
-0.0260460598 -0.0250325911 0.0627850503
-0.0012658441 -0.0256301532 0.0732482575
0.0198142656 -0.0215628479 -0.0786600842
0.0230256142 -0.0242533012 -0.0282793178
0.0106807893 -0.0269023786 0.0069952030
0.0130799580 -0.0262765447 -0.0014858994
-0.0303515946 -0.0131567168 0.0369727355
-0.0149379834 -0.0234716393 0.0904246405
-0.0300975582 -0.0009239106 0.0311953118
0.0190147611 -0.0224971635 -0.0539358590
0.0143915570 -0.0257849820 -0.0081998679
0.0189219673 -0.0271505739 0.0276553799
0.0024591928 -0.0274536130 0.0382929473
-0.0241663665 -0.0156741923 0.1174699644
-0.0229174451 -0.0202736502 0.1034256201
-0.0036913557 -0.0225693235 0.0979072318
0.0288498762 -0.0221422548 -0.0521352436
0.0229304476 -0.0263991188 0.0400559205
0.0168239683 -0.0264551700 0.0400048350
0.0109601411 -0.0237998514 0.0857724677
0.0086744587 -0.0220761940 0.1023447694
-0.0284166415 -0.0140736211 0.0957170255
0.0146175814 -0.0200531243 -0.1007850003
0.0305422321 -0.0164096832 -0.0559348479
0.0293289123 -0.0214365836 0.0644322465
0.0163956744 -0.0230355932 0.0970944584
-0.0288593798 -0.0071020773 0.0897983650
0.0307897183 -0.0128320882 -0.0356088296
0.0309188632 -0.0179374563 -0.0184575623
0.0307060990 -0.0127323444 0.0762692912
-0.0250286577 -0.0066224662 0.1099400518
0.0300151442 -0.0101538988 -0.0769655669
0.0308732474 -0.0107295937 -0.0186023460
0.0308419956 -0.0118002061 0.0364055449
-0.0284397609 -0.0018174000 0.0893271408
0.0308358705 -0.0049936386 0.0044443997
0.0220955936 -0.0155631735 0.1229645873
0.0308262794 -0.0044012695 -0.0251365099
0.0206891906 -0.0127166523 -0.1250307972
0.0308147922 -0.0017507758 -0.0136629265
-0.0291716577 -0.0008195892 0.0764470276
-0.0742721460 -0.0164062413 0.0390559160
-0.0679731736 -0.0223771361 0.0141208737
-0.0742634322 -0.0179328569 0.0331839582
-0.0690964045 -0.0230123405 0.0574915226
-0.0701035363 -0.0189380500 0.0697461771
-0.1110438062 -0.0160930284 0.0291906114
-0.1138536449 -0.0140288720 0.0520001929
-0.1101543927 -0.0164386993 0.0305067698
-0.1538269494 -0.0076033144 0.0626396396
-0.1470245056 -0.0084434454 0.0757639805
-0.1521524792 -0.0101296369 0.0809912257
-0.1470923538 -0.0071167182 0.0495646400
-0.1856640095 0.0003888110 0.0641569173
-0.1842460032 0.0030918714 0.0730812487
-0.1885239429 -0.0029605301 0.1121590962
-0.2167081878 0.0000147718 0.1045043083
-0.2200184085 0.0010789393 0.1203934911
-0.2192499339 0.0009368231 0.0878284019
-0.1368095781 -0.0057302720 0.0112400613
-0.1378368249 -0.0036679051 -0.0270586549
-0.1324827308 0.0001436855 -0.0231990564
-0.1329467815 -0.0055799642 -0.0325875620
-0.1354569978 -0.0143130003 -0.0025524633
-0.2249582880 0.0065176884 0.0148998523
-0.2247368286 0.0018448076 0.0859361094
-0.2263448369 0.0089498033 0.0737463823
-0.2288839072 0.0012436051 0.0539923678
-0.2240057572 -0.0019647772 0.0657166526
-0.0369133478 -0.0198150685 0.0364094027
-0.0559840138 -0.0185367055 0.0548518865
-0.0300649458 -0.0231707020 0.0317633049
-0.0529684352 -0.0192618059 0.0381332912
-0.1100416985 -0.0082668562 0.0626434301
-0.0727170285 -0.0161615641 0.0529716906
-0.0853615090 -0.0137495925 0.0444513263
-0.1316396666 -0.0063971386 0.0717834360
-0.1298147268 -0.0066198240 0.0624951727
-0.2140897641 0.0083472789 0.1025853620
-0.2150229194 0.0076337828 0.1080468954
-0.2425668826 0.0122808969 0.1146145947
-0.2589173426 0.0125434258 0.1330393704
-0.2334860870 0.0091249647 0.1146362815
-0.2955388835 0.0169530161 0.1381683356
-0.0363626328 -0.0206983856 0.0421698382
-0.0337189613 -0.0230941393 0.0527390281
-0.0291039535 -0.0235064616 0.0377314373
-0.0683754610 -0.0166474982 0.0420332457
-0.0971387073 -0.0119545379 0.0670923321
-0.1191691398 -0.0074051737 0.0693257797
-0.1405381742 -0.0041679206 0.0792916083
-0.1844261651 0.0044201124 0.0875284017
-0.1902293268 0.0037991758 0.0987862298
-0.2289782833 0.0106524892 0.1080656810
-0.2065513650 0.0052163238 0.1086312820
-0.2479083617 0.0125424787 0.1194460249
-0.2851981548 0.0160031433 0.1430840417
-0.2626450840 0.0129377782 0.1310944974
-0.0308969242 -0.0140385604 -0.0060334781
-0.0563623521 -0.0141213382 0.0258459434
-0.0652253947 -0.0075098294 0.0019822027
-0.0769870415 -0.0090454751 0.0249861338
-0.0428712140 -0.0056940118 -0.0353836878
-0.0926429734 -0.0068781036 0.0328458040
-0.1023529384 -0.0020724057 0.0175394162
-0.0637905749 -0.0012780622 -0.0480935875
-0.1302088743 -0.0012389745 0.0491515942
-0.1222386566 0.0020111890 0.0168453188
-0.0772772708 -0.0001266579 -0.0377961665
-0.1281850181 0.0050669564 -0.0059568401
-0.1454302872 0.0041303335 0.0346737371
-0.0606874833 -0.0010093563 -0.0587227585
-0.1304723823 0.0053839478 -0.0150034927
-0.1854116517 0.0102595219 0.0455788531
-0.0346142657 -0.0030943214 -0.0854375723
-0.0693916013 0.0004234348 -0.0614812127
-0.1781556438 0.0043369222 0.0793149959
-0.1910191192 0.0112745044 0.0408121159
-0.0595040777 -0.0001352996 -0.0729887002
-0.2049431615 0.0108465360 0.0704910348
-0.2006783667 0.0122562745 0.0314437513
-0.2208050517 0.0099267751 0.1013762340
-0.2225396493 0.0144405233 0.0663201773
-0.2257169009 0.0114525602 0.0422595172
-0.2597520607 0.0164674151 0.1076206197
-0.2759185228 0.0202142823 0.0935579258
-0.2451094981 0.0168509787 0.0637205447
-0.0795094018 -0.0039556709 -0.0608101379
-0.2657574062 0.0152808298 0.1237175795
-0.3221673257 0.0250214935 0.1311848796
-0.3029728774 0.0229640652 0.1060301110
-0.1490130903 0.0008409506 -0.0034488186
-0.3089880983 0.0196765091 0.1095599028
-0.3379063962 0.0238603989 0.1253378430
-0.1176226878 -0.0037023761 -0.0177074406
-0.2034207887 0.0076152892 0.0307900072
-0.3383840640 0.0262590663 0.1458965144
-0.0791021368 -0.0072880909 -0.0483590407
-0.1240409762 -0.0035918111 -0.0017236663
-0.1751235608 0.0021790606 0.0466161493
-0.1833903069 0.0026238781 0.0657640437
-0.2052262992 0.0065780306 0.0539234203
-0.3003192273 0.0182541443 0.1118885427
-0.3159522003 0.0200773878 0.1243250408
-0.0556057513 -0.0110183866 -0.0574721796
-0.0983654868 -0.0070281372 -0.0160775052
-0.1080456335 -0.0094618656 0.0435402131
-0.1218175655 -0.0049480095 0.0143569917
-0.1780023480 0.0016880511 0.0672218594
-0.1798438099 0.0011461037 0.0831429318
-0.2078277777 0.0057526331 0.0856427254
-0.2167963990 0.0070350799 0.0908887995
-0.2610035036 0.0128777140 0.1091969712
-0.3006013787 0.0176362491 0.1366743639
-0.2557994018 0.0121531116 0.1090540858
-0.3521949299 0.0274734498 0.1574221936
-0.0627885395 -0.0104455777 -0.0512761100
-0.0758600375 -0.0151206259 0.0349678872
-0.0747835978 -0.0149192365 0.0298392059
-0.0299233980 -0.0213978425 0.0016604872
-0.0587914278 -0.0142722110 -0.0143397560
-0.0684234890 -0.0137901970 0.0006293232
-0.0570649591 -0.0164382675 0.0077724250
-0.0324172283 -0.0164835452 0.0079095200
-0.0538457580 -0.0083147772 -0.0085386973
-0.0793841413 -0.0090557637 0.0279862048
-0.0436214289 -0.0073257166 -0.0266438275
-0.0708256744 -0.0064125268 0.0026251783
-0.0999427008 -0.0054800291 0.0345466340
-0.0540841208 -0.0033296761 -0.0379802381
-0.0866334408 0.0002099233 -0.0234814424
-0.1408063549 0.0056181421 0.0170573284
-0.0269979295 -0.0048234089 -0.0650840860
-0.1103693190 0.0026217833 -0.0064090384
-0.1472847468 0.0007146013 0.0604323283
-0.1209866069 0.0037076888 0.0001062023
-0.1013723096 0.0026874586 -0.0303404089
-0.1566106579 0.0032511076 0.0570913743
-0.1706143755 0.0092483184 0.0242949591
-0.0865676833 0.0013210592 -0.0476393841
-0.1727890632 0.0093193296 0.0079089384
-0.1817949124 0.0085993943 0.0536183312
-0.1810357381 0.0101775021 0.0153159577
-0.2129219416 0.0102875275 0.0872830313
-0.1944776922 0.0119480241 0.0335142978
-0.1283916183 0.0032406731 -0.0276237018
-0.2156439280 0.0115473154 0.0819429389
-0.0250017082 -0.0060019059 -0.1131103776
-0.2857571863 0.0190850213 0.1239827366
-0.2502655920 0.0157951589 0.0993371286
-0.2603239915 0.0186696807 0.0789902743
-0.2908988141 0.0200810029 0.0895869202
-0.2608192583 0.0153495447 0.0678738202
-0.3066094520 0.0229360892 0.1252536387
-0.2813665053 0.0207135380 0.1009167431
-0.0256309233 -0.0086904734 -0.1129629212
-0.1773736229 0.0044595947 0.0136079666
-0.3044959424 0.0192231372 0.1053844822
-0.1071553706 -0.0040089133 -0.0317677654
-0.1570890162 0.0020735780 -0.0003712920
-0.3101770422 0.0195660391 0.1134110387
-0.0273533173 -0.0133481445 -0.0801194074
-0.1189597047 -0.0042070388 -0.0051153701
-0.1427074343 -0.0012279114 0.0088329881
-0.1909046741 0.0040680115 0.0581825242
-0.2305965128 0.0087228060 0.1055032562
-0.2202812358 0.0087568827 0.0528566772
-0.3072962230 0.0191972209 0.1119607122
-0.3472223549 0.0270660431 0.1409627286
-0.0885432869 -0.0075598741 -0.0322331353
-0.0937656558 -0.0090422276 0.0024323929
-0.1102362406 -0.0089470445 0.0413216926
-0.1268302441 -0.0045013975 0.0216587277
-0.1626915580 -0.0001646205 0.0514122982
-0.1626218029 -0.0007084643 0.0611551530
-0.1936638104 0.0031914271 0.0902346534
-0.2926102081 0.0170533719 0.1179354868
-0.2936213794 0.0172440812 0.1162183297
-0.2419396580 0.0106483904 0.0938148111
-0.2619474802 0.0136290686 0.0875527809
-0.0531868736 -0.0141812888 -0.0274927708
-0.0927743936 -0.0108339896 0.0235332019
-0.0752074986 -0.0143049798 0.0232932138
-0.0794982434 -0.0133554046 0.0220948296
-0.0321323755 -0.0200913899 -0.0067881409
-0.0695887854 -0.0144796009 0.0116747813
-0.0329075456 -0.0216620376 0.0097876937
-0.3534349772 0.0254470674 0.1582256318
-0.0473697421 -0.0401273350 0.0091742024
-0.0443842154 -0.0435262927 -0.0038960757
-0.0562411087 -0.0381246899 -0.0022757234
-0.0530687851 -0.0411148588 0.0070329584
-0.0428901365 -0.0426524426 0.0040074289
-0.0461683911 -0.0151231059 0.0002869029
-0.0472614319 -0.0143358552 0.0020713443
-0.0485381746 -0.0234550967 -0.0031781932
-0.0109478367 -0.0394062745 0.0390489995
-0.0093252094 -0.0346351098 0.0440270228
-0.0195192423 -0.0385063424 0.0431171498
-0.0198216372 -0.0354143410 0.0516372398
-0.0102795692 -0.0437697363 0.0514534262
-0.0119745144 -0.0371719363 0.0296432052
-0.0234145632 -0.0444703828 0.0268868497
-0.0228728415 -0.0422232451 0.0239334899
0.0093771164 -0.0064809278 0.0409613390
-0.0154442243 -0.0386457263 0.0411552758
-0.0169036394 -0.0123053296 0.0328702159
-0.2248993788 0.0023376907 0.0496203506
-0.2365089899 -0.0174228940 0.0532203660
-0.2194267616 0.0023499193 0.0384136094
-0.2162261591 -0.0182046098 0.0503057166
-0.2191280507 -0.0127988260 0.0543391923
-0.2291410875 -0.0166194927 0.0585104185
-0.2364196187 0.0008831438 0.0225260179
-0.2182658554 0.0017121510 0.0317794577
-0.2123699103 -0.0067201729 0.0344421641
-0.2124163077 -0.0157417468 0.0311440404
-0.2348652374 -0.0235444746 0.0234057347
-0.2223180059 -0.0239226486 0.0008451848
-0.2359448416 0.0012764109 0.0211708947
-0.2366873535 -0.0031227942 -0.0032613159
-0.2409440129 -0.0073284922 0.0337680388
-0.2128291950 -0.0039872186 0.0203329359
-0.2404538670 -0.0168339466 0.0133900766
-0.2375942400 -0.0198223499 0.0022980681
-0.2186951313 -0.0231258034 0.0058931201
-0.2245186771 -0.0252743894 0.0086382343
-0.2344018079 -0.0061014973 0.0491110012
-0.2249448892 -0.0072893643 0.0648899009
-0.2157469640 -0.0051666870 0.0049840002
-0.1422419933 -0.0093032738 -0.0260709544
-0.1226161966 -0.0273934885 -0.0276192703
-0.1461144695 -0.0125360290 -0.0253127021
-0.1429690764 -0.0337920537 -0.0282572815
-0.1286609116 -0.0273764266 -0.0220363610
-0.1377401065 -0.0078113607 -0.0720940496
-0.1314431812 -0.0073605176 -0.0387408049
-0.1498727347 -0.0178376334 -0.0671752069
-0.1228601153 -0.0211746363 -0.0249579498
-0.1483121610 -0.0296676922 -0.0423032942
-0.1244372779 -0.0314715929 -0.0653908544
-0.1323109505 -0.0362514127 -0.0391060404
-0.1328449250 -0.0070053224 -0.0645237119
-0.1289539378 -0.0083153536 -0.0390348439
-0.1470380912 -0.0175619658 -0.0713105185
-0.1434677876 -0.0229633237 -0.0219500009
-0.1493203306 -0.0284243344 -0.0492430226
-0.1229208954 -0.0295651045 -0.0378275015
-0.1398121094 -0.0333359022 -0.0242801048
-0.1375396979 -0.0094114300 -0.0716727740
-0.1308775827 -0.0194367396 -0.0219500009
-0.1326561530 -0.0203659116 -0.0043122060
-0.1360027875 -0.0106502925 -0.0660770014
0.0732377792 -0.0162468744 0.0034468602
0.0690164650 -0.0214211571 0.0675815897
0.0737435944 -0.0154306932 0.0090387370
0.0686188410 -0.0221659076 0.0102410454
0.1138336539 -0.0126821598 0.0440355203
0.1088322096 -0.0167210060 0.0359086825
0.1136556438 -0.0141710432 0.0489170768
0.1068477903 -0.0152624607 0.0532587327
0.1537710756 -0.0064551451 0.0607093126
0.1466361895 -0.0086807084 0.0611903428
0.1534232124 -0.0047377502 0.0480687107
0.1461403282 -0.0042290310 0.0569103756
0.1862944220 0.0063156642 0.0544764192
0.1907847654 0.0008553564 0.1003572866
0.1843247649 0.0012354653 0.0951680691
0.2222139883 0.0071451722 0.0877212787
0.2160903895 0.0040089423 0.1149331281
0.2187835795 0.0080659286 0.0706308041
0.1367383743 -0.0057370326 0.0082776708
0.1376069804 -0.0075856596 -0.0144776036
0.1331357139 -0.0027850294 0.0030474794
0.1330307328 -0.0100860597 -0.0002291217
0.1363539994 -0.0055620102 -0.0600366351
0.2287509468 0.0024089586 0.0528025812
0.2247310748 0.0062742938 0.0890134895
0.2239772654 0.0095302161 0.0599062621
0.2234849754 0.0038913498 0.0566878899
0.2247040815 -0.0014712638 0.0884300295
0.0455969838 -0.0175415479 0.0337716770
0.0300259615 -0.0229192160 0.0235359545
0.0525046211 -0.0195323202 0.0464723667
0.0554886091 -0.0186543470 0.0329099718
0.0831376248 -0.0143730544 0.0640705307
0.1403977242 -0.0020977898 0.0683083513
0.1450498818 -0.0030688411 0.0794092728
0.1545156602 -0.0016866117 0.0839327569
0.1852920030 0.0040773861 0.0907664527
0.1927131711 0.0049872608 0.0952453772
0.2207790199 0.0079666796 0.1141129693
0.2375562223 0.0108448900 0.1179021586
0.3258156155 0.0217131822 0.1563169109
0.2542703173 0.0119013038 0.1282662696
0.0512111287 -0.0160965385 0.0320623509
0.0319222983 -0.0200085972 0.0299963903
0.0304886748 -0.0226627949 0.0172144783
0.0715836086 -0.0134107886 0.0431482401
0.0557784183 -0.0186547640 0.0349478959
0.0869573138 -0.0139408701 0.0651516940
0.1121547158 -0.0094529124 0.0714494262
0.1396809811 -0.0035179220 0.0748866139
0.1748953087 0.0028888314 0.0842845316
0.1839645378 0.0032569284 0.0938279195
0.1985604866 0.0050283427 0.1024977810
0.1941362359 0.0033168139 0.0972873857
0.2496021607 0.0117588819 0.1267294840
0.2998450918 0.0186593884 0.1438483136
0.2602550402 0.0126570544 0.1302642756
0.0295624988 -0.0147642999 -0.0038045039
0.0637350636 -0.0130709063 0.0300163054
0.0619809717 -0.0068021766 -0.0067064518
0.0351883623 -0.0098881699 -0.0223303107
0.0704724415 -0.0064741580 0.0027925723
0.1080167287 -0.0030462117 0.0315893612
0.1093318553 0.0005403643 0.0096862739
0.0788252046 -0.0008153779 -0.0247982128
0.1164318551 -0.0044453688 0.0503464096
0.0246470033 -0.0057443392 -0.0577398337
0.0703587025 -0.0004929070 -0.0462273648
0.1435469771 -0.0002609346 0.0616042826
0.1330164215 0.0022902501 0.0302928203
0.0612107509 -0.0010319308 -0.0557620914
0.1539958339 0.0015126749 0.0647485265
0.1546852104 0.0061210667 0.0333904139
0.0278883721 -0.0038209713 -0.0839405758
0.1302715118 0.0051834826 -0.0236476456
0.1620397330 0.0017205127 0.0742916701
0.1811819082 0.0103137747 0.0325308880
0.1504462931 0.0052339094 -0.0119524253
0.1993183474 0.0107415901 0.0630982914
0.1961925268 0.0119115221 0.0301890768
0.2238733656 0.0101624914 0.1044838977
0.2211958829 0.0146538574 0.0512542338
0.2509407678 0.0151891955 0.1052445885
0.2887270025 0.0191806284 0.1276180271
0.3162222727 0.0245098428 0.1177045764
0.2323130267 0.0152174667 0.0492743960
0.1169917932 0.0002768603 -0.0361626887
0.2738957783 0.0184453129 0.1125387745
0.3316788410 0.0260815100 0.1330076116
0.3086207569 0.0236459051 0.1111293755
0.1324108324 -0.0008785667 -0.0160198655
0.3258168973 0.0215465620 0.1232250184
0.0454374620 -0.0086651222 -0.0802065671
0.1294807203 -0.0014804113 -0.0158586426
0.2501307943 0.0131914473 0.0628372739
0.3453536110 0.0253680628 0.1338833968
0.1467507365 -0.0015557739 0.0270390920
0.1294529928 -0.0026081054 -0.0036093739
0.1621027027 0.0014125437 0.0186931696
0.1818971710 0.0023293411 0.0681060082
0.2253882883 0.0093661714 0.0579363295
0.3043571732 0.0185912783 0.1218090922
0.3292669400 0.0214055513 0.1454765798
0.1092849505 -0.0082896822 0.0296953978
0.1054331455 -0.0083610175 0.0213332332
0.1201239295 -0.0064011580 0.0316302352
0.1225570509 -0.0054416376 0.0242018529
0.1845632028 0.0019675356 0.0840148430
0.1701090063 0.0011273472 0.0524292937
0.2020001183 0.0048233298 0.0852684250
0.2012634805 0.0051438683 0.0746036998
0.2624752892 0.0131940260 0.1062311118
0.2416133275 0.0105953288 0.0949587392
0.2567459285 0.0124476768 0.1042771748
0.0437639941 -0.0142056491 -0.0431690193
0.0479261671 -0.0127921299 -0.0512555716
0.0898249939 -0.0111581823 0.0207436581
0.0953951227 -0.0116410699 0.0403759841
0.0295103109 -0.0221669658 0.0085557906
0.0569089832 -0.0141268220 -0.0198310964
0.0557530586 -0.0148952209 -0.0128520180
0.0359839291 -0.0205380845 0.0050657569
0.0667983043 -0.0076311098 0.0051087639
0.0453197024 -0.0091635444 -0.0146164024
0.0838858508 -0.0060281653 0.0175988245
0.0298890989 -0.0061857772 -0.0457506571
0.0928294080 -0.0007805400 -0.0043232739
0.1011558753 -0.0013256235 0.0108806748
0.0691011348 -0.0004715528 -0.0489749679
0.1371423009 0.0003933848 0.0487865580
0.1179877978 0.0029451505 0.0048036178
0.0339359940 -0.0050879183 -0.0507228811
0.1404395329 0.0064611419 -0.0004250821
0.1333042688 0.0026156943 0.0282450044
0.1504371282 0.0069464182 0.0174935790
0.1211678214 0.0045832656 -0.0181862700
0.1562941664 0.0062624319 0.0346165672
0.1635359516 0.0086829096 0.0170881019
0.0715032663 0.0000787316 -0.0529608587
0.1716742184 0.0093040374 0.0094342925
0.1552091014 0.0039258326 0.0510744100
0.1628711494 0.0086923573 0.0099071750
0.1999324309 0.0080770405 0.0847686976
0.2181794901 0.0143532498 0.0496463744
0.2064318936 0.0112345466 0.0285135507
0.2247082627 0.0130763026 0.0831262152
0.1003473079 -0.0023837552 -0.0466457799
0.2805979715 0.0178337838 0.1264450201
0.2418482148 0.0153622248 0.0899239946
0.2506281695 0.0175681733 0.0777202457
0.2446849221 0.0151235789 0.0559600373
0.2850312685 0.0178956133 0.1310544872
0.3101124817 0.0234672023 0.1265918376
0.2450303963 0.0170764654 0.0672924447
0.0927764125 -0.0040794811 -0.0493726674
0.1869371485 0.0053506779 0.0227306600
0.3139859367 0.0232279014 0.1326177277
0.1012972762 -0.0043531799 -0.0369813608
0.2032839354 0.0075888177 0.0311480826
0.2853894121 0.0168046646 0.0942945791
0.0595757370 -0.0085076271 -0.0638609127
0.1308015976 -0.0026824028 0.0016461269
0.1500797700 -0.0023101760 0.0504797189
0.1635665132 0.0011154805 0.0311149898
0.2196907263 0.0086630504 0.0540939422
0.2772716926 0.0154466691 0.0996539235
0.2973989842 0.0179259575 0.1100820297
0.0457012466 -0.0112317416 -0.0690001938
0.1093856859 -0.0073848110 0.0165738299
0.0919221657 -0.0094827761 0.0048766112
0.1325761403 -0.0039678984 0.0302118930
0.1436761556 -0.0039577356 0.0608408988
0.1508358655 -0.0026623051 0.0592471981
0.1609265206 -0.0008607880 0.0590249034
0.2069600402 0.0065213188 0.0644095328
0.2635206252 0.0135652329 0.0983716827
0.2540750406 0.0119751925 0.1077202729
0.2757209939 0.0144406868 0.1274863617
0.3371786484 0.0227014993 0.1395588795
0.0411566500 -0.0126449476 -0.0645203284
0.1072016846 -0.0098659340 0.0474248369
0.0743827557 -0.0145091568 0.0242351535
0.3365287299 0.0223970420 0.1614618043
0.0291495628 -0.0217978196 0.0043973393
0.0579822324 -0.0129010991 -0.0326378063
0.0448829205 -0.0171563414 -0.0111346306
0.3527100328 0.0229707185 0.1673362083
0.0529082128 -0.0400090382 -0.0065619915
0.0421665870 -0.0421158818 -0.0124305672
0.0511840143 -0.0417812438 -0.0028076350
0.0531220471 -0.0359709156 0.0145492394
0.0437659040 -0.0413865683 0.0115661626
0.0416463583 -0.0162238271 -0.0000347924
0.0482020329 -0.0172538465 0.0022232603
0.0478240575 -0.0403455997 0.0127243221
0.0116582189 -0.0390661687 0.0406519994
0.0077042337 -0.0401248055 0.0348768678
0.0243236488 -0.0411640016 0.0364010686
0.0236577122 -0.0422161293 0.0603547978
0.0103284007 -0.0385975284 0.0495487919
0.0085117898 -0.0334578808 0.0219553530
0.0195034628 -0.0341633215 0.0256055118
0.0154890749 -0.0319765947 0.0459761328
0.0122491195 -0.0300771165 0.0386765416
0.0168990194 -0.0256491161 0.0382711533
0.0147446184 -0.0115205352 0.0340449626
0.2220343919 0.0026064282 0.0458669811
0.2375673758 -0.0198503739 0.0410528018
0.2160653893 -0.0011574343 0.0451739048
0.2173765919 -0.0217312504 0.0428003727
0.2218741484 -0.0157144686 0.0577938791
0.2263432210 0.0036409070 0.0014036105
0.2259274397 0.0035484393 0.0387659651
0.2150635274 -0.0045118265 -0.0029477792
0.2118579655 -0.0099622365 0.0359946288
0.2388594263 -0.0181035398 0.0357408361
0.2348625107 -0.0229255381 0.0094533096
0.2226124839 -0.0238775650 0.0412363028
0.2266911286 0.0043408467 0.0279015966
0.2248536931 0.0015024677 0.0482307342
0.2151362004 -0.0053056595 -0.0033407648
0.2132079759 -0.0101391485 0.0442067128
0.2389306275 -0.0169782064 0.0390241567
0.2138688657 -0.0188181308 0.0326355220
0.2203389088 -0.0218366614 0.0456926820
0.2286677896 0.0013212500 0.0019821959
0.2150272938 -0.0068766693 0.0491110012
0.2295186141 -0.0103415245 0.0663094850
0.2262165179 0.0013121682 0.0049840002
0.1444721307 -0.0129840519 -0.0194247481
0.1250054136 -0.0306779112 -0.0246205642
0.1472699200 -0.0149555640 -0.0239206368
0.1382114450 -0.0341175164 -0.0209945177
0.1358270579 -0.0288199965 -0.0153431292
0.1408130895 -0.0079513034 -0.0660680291
0.1461123677 -0.0125163444 -0.0313680794
0.1492267497 -0.0184815929 -0.0328323743
0.1206288673 -0.0182731757 -0.0448551839
0.1483705072 -0.0290495968 -0.0653848410
0.1262495136 -0.0336995487 -0.0424053377
0.1340378312 -0.0366710157 -0.0419046959
0.1282449999 -0.0100266607 -0.0728663458
0.1481875486 -0.0163072362 -0.0724877562
0.1273830706 -0.0122626912 -0.0230595823
0.1215378688 -0.0159702831 -0.0400679748
0.1486492550 -0.0293441813 -0.0535814879
0.1447501620 -0.0333070101 -0.0391898439
0.1392309406 -0.0352410222 -0.0684202531
0.1291528610 -0.0108782102 -0.0723575515
0.1260088445 -0.0227376195 -0.0219500009
0.1339345221 -0.0225226241 0.0005514896
0.1469115813 -0.0259248752 -0.0660770014
